487
4839.882361 7833.574872 -70.465088 -958
4842.002618 7832.924624 -66.314697 -933
4823.785475 7831.579278 -70.770264 -1119
4830.172381 7831.992470 -71.105957 -1233
4836.166187 7830.061148 -69.152832 -1193
4829.082147 7823.428945 -71.960449 -993
4829.615245 7827.603483 -71.533203 -1142
4824.909463 7830.758423 -59.967041 -1238
4834.826038 7829.147373 -62.835693 -1090
4829.753389 7822.637127 -62.316895 -1185
4836.081268 7821.167787 -70.556641 -957
4844.704101 7832.035508 -62.530518 -948
4849.864152 7830.414792 -60.058594 -997
4843.527467 7827.737680 -62.561035 -957
4848.440035 7821.584694 -60.760498 -855
4843.527467 7827.737680 -62.561035 -957
4848.440035 7821.584694 -60.760498 -855
4832.665704 7818.011224 -69.335938 -954
4835.923512 7825.571768 -69.763184 -1103
4841.322291 7819.494566 -68.145752 -907
4839.059751 7815.969894 -67.596436 -948
4840.831032 7824.022789 -67.169189 -953
4840.216103 7828.803733 -66.070557 -1056
4834.285899 7817.742748 -61.004639 -1078
4847.945020 7817.362458 -61.187744 -926
4845.061932 7822.636514 -64.208984 -864
4844.948116 7818.328119 -64.849854 -912
4844.381745 7814.244168 -65.216064 -938
4838.250465 7812.043460 -62.438965 -1005
4838.090665 7809.455652 -60.516357 -1055
4845.230545 7809.806151 -61.004639 -941
4848.422045 7812.900973 -62.164307 -930
4859.955141 7831.715626 -54.229736 -1014
4865.386142 7834.255406 -51.239014 -1017
4864.023096 7834.299628 -50.872803 -1183
4864.424338 7830.324354 -51.391602 -1033
4893.471211 7832.974580 -56.335449 -1097
4883.996053 7832.712145 -50.140381 -1066
4880.994963 7829.378835 -49.133301 -1077
4876.793721 7826.961775 -52.001953 -1140
4871.218005 7832.429096 -49.102783 -1043
4865.963230 7824.875263 -50.109863 -1216
4868.826796 7828.918848 -48.461914 -1051
4863.914899 7825.973449 -51.818848 -1060
4868.360247 7824.563135 -48.919678 -1044
4878.823251 7821.240541 -49.346924 -1042
4878.598947 7825.825697 -48.492432 -1087
4874.388089 7823.322858 -47.546387 -1200
4868.327023 7819.811418 -44.311523 -977
4842.133671 7825.570486 -53.558350 -1203
4847.153293 7826.571232 -59.295654 -962
4853.956526 7833.604058 -56.243896 -977
4852.439249 7831.884993 -56.915283 -1060
4860.851257 7826.924876 -55.450439 -1067
4856.134337 7828.430775 -58.166504 -1041
4861.037430 7827.229722 -57.891846 -1120
4855.939169 7823.784069 -53.466797 -1009
4851.646579 7820.552104 -57.189941 -856
4851.617682 7825.137070 -56.427002 -1019
4846.959739 7833.367804 -48.889160 -1234
4854.751489 7827.717215 -51.086426 -1213
4847.157389 7820.990187 -46.966553 -1214
4844.566776 7813.376567 -49.133301 -1147
4854.452882 7819.629524 -53.375244 -889
4853.352793 7815.627116 -53.466797 -920
4862.442704 7816.714453 -56.610107 -1162
4862.881168 7821.594458 -46.600342 -945
4859.145714 7822.751480 -49.896240 -958
4861.123309 7817.535498 -46.386719 -1016
4855.782704 7814.833585 -49.468994 -980
4857.221104 7818.754641 -49.591064 -966
4869.659700 7817.946596 -44.342041 -1165
4869.249843 7817.970825 -45.684814 -1240
4867.598328 7815.441663 -44.616699 -1039
4866.912712 7811.262507 -44.952393 -1065
4858.985061 7809.502025 -46.600342 -867
4859.489502 7813.614633 -46.173096 -1034
4861.142209 7812.473938 -47.424316 -1246
4859.731465 7812.480078 -45.104980 -1193
4846.641338 7804.957707 -57.189941 -883
4852.595822 7811.586245 -53.771973 -819
4850.794213 7816.435070 -57.434082 -912
4850.899654 7812.145524 -58.166504 -882
4849.923616 7808.281211 -58.319092 -864
4841.090663 7806.774211 -59.417725 -944
4852.563168 7807.420751 -54.412842 -818
4851.201363 7798.952812 -55.114746 -824
4846.927573 7800.343894 -58.074951 -874
4850.767418 7803.604897 -54.138184 -835
4857.194309 7805.924468 -46.295166 -791
4854.764398 7806.717998 -50.292969 -787
4855.297304 7810.697129 -49.896240 -803
4850.861241 7806.960102 -48.217773 -1177
4854.054933 7802.519802 -50.598145 -820
5593.035678 7822.456078 -55.419922 -1067
5477.738245 7835.098317 -63.079834 -1203
5468.801712 7825.112620 -60.882568 -891
5463.988445 7825.565317 -62.011719 -857
5473.777162 7819.908016 -63.110352 -806
5472.499134 7819.160992 -63.201904 -836
5455.087794 7842.631669 -52.307129 -1051
5454.466583 7840.964157 -56.243896 -1136
5498.287330 7842.718276 -53.955078 -920
5499.445213 7837.550753 -57.281494 -1069
5495.713995 7838.164441 -53.344727 -974
5459.243671 7842.513236 -54.687500 -911
5475.000012 7837.402985 -56.518555 -1147
5460.377515 7837.131264 -55.816650 -890
5469.468808 7834.744152 -54.168701 -941
5467.992037 7840.359994 -54.412842 -991
5469.135446 7839.906106 -53.436279 -951
5464.856377 7830.983467 -58.471680 -927
5462.018372 7828.717593 -56.274414 -1097
5469.570343 7836.231059 -51.086426 -1142
5465.772818 7832.379026 -50.537109 -1128
5482.762865 7836.337361 -53.863525 -978
5491.150735 7840.847404 -54.138184 -1091
5484.146045 7842.284041 -56.274414 -1107
5483.435009 7841.364886 -53.558350 -976
5482.128183 7835.518219 -54.229736 -1123
5481.525203 7837.887532 -56.579590 -936
5493.030842 7833.405773 -58.135986 -992
5483.891901 7830.912500 -54.962158 -997
5472.132258 7829.060429 -55.969238 -925
5479.069879 7822.376440 -53.863525 -924
5472.956638 7824.017148 -56.945801 -884
5478.620989 7821.471328 -49.804688 -1083
5474.005083 7819.035608 -49.957275 -1051
5712.562853 7846.384366 -60.028076 -997
5697.700916 7844.945197 -60.119629 -1049
5691.167251 7845.547317 -61.309814 -1100
5695.746888 7840.104796 -59.814453 -1054
5608.928674 7845.103153 -53.253174 -878
5697.104034 7834.002934 -54.840088 -1048
5699.817177 7840.191387 -57.373047 -1132
5695.293761 7839.743018 -54.656982 -1168
5649.340758 7845.893083 -52.032471 -961
5611.746545 7841.378125 -52.368164 -1198
5626.578303 7841.192101 -52.673340 -1152
5620.869209 7836.946348 -53.100586 -1010
5619.358974 7842.457369 -51.879883 -914
5610.894510 7842.494210 -49.987793 -1116
5619.526346 7838.139168 -49.407959 -1143
5635.283208 7838.457444 -52.947998 -967
5639.344973 7844.473005 -53.680420 -1075
5638.414110 7842.948777 -53.802490 -1010
5645.224344 7842.489369 -56.274414 -1211
5644.868805 7834.668632 -54.840088 -1093
5647.096117 7841.172117 -50.720215 -1064
5638.169151 7836.114504 -50.720215 -1124
5630.794018 7838.895526 -53.405762 -1123
5626.673367 7836.035146 -53.192139 -1138
5635.545023 7833.238367 -53.619385 -1030
5632.549361 7825.691866 -54.077148 -1127
5623.818465 7831.100301 -48.919678 -958
5626.677132 7825.220981 -50.750732 -968
5625.973378 7826.885017 -49.835205 -1131
5654.171592 7839.010972 -54.748535 -966
5675.948725 7844.994980 -57.159424 -1053
5674.364568 7838.223970 -50.598145 -1148
5655.280205 7837.084409 -53.527832 -1126
5668.545937 7843.848807 -53.283691 -1207
5667.036893 7845.689971 -56.182861 -1207
5663.030298 7842.491090 -52.001953 -944
5658.189947 7839.602814 -58.319092 -1198
5663.624713 7831.328428 -53.405762 -950
5664.244542 7836.470390 -53.161621 -946
5668.854738 7833.043877 -49.011230 -1192
5662.607640 7834.265304 -50.842285 -1140
5681.245256 7831.806935 -51.971436 -1201
5678.258871 7838.677718 -52.642822 -1022
5688.463634 7829.564628 -55.664062 -1230
5676.353351 7829.814726 -52.276611 -1209
5676.906300 7829.904742 -53.161621 -1210
5677.109751 7833.269373 -52.734375 -1006
5676.632825 7828.046250 -53.070068 -1025
5674.926711 7823.286631 -52.886963 -1034
5670.695861 7819.830601 -49.621582 -1117
5639.282099 7823.959999 -51.940918 -1118
5649.186866 7829.798292 -53.649902 -999
5651.669613 7834.318852 -54.199219 -950
5661.308717 7826.745747 -52.917480 -988
5652.881052 7820.524732 -53.771973 -1131
5653.780876 7829.326744 -50.842285 -1067
5652.045534 7823.918971 -49.377441 -905
5638.158972 7815.877877 -55.206299 -1092
5642.605653 7815.835417 -52.337646 -955
5641.200428 7821.508382 -51.147461 -948
5639.923683 7826.971516 -50.048828 -937
5631.873221 7816.560778 -50.720215 -1141
5646.581068 7821.274371 -49.316406 -1123
5641.910422 7811.570482 -48.889160 -1217
5636.816539 7812.619208 -50.994873 -1128
5656.094977 7812.390725 -52.276611 -969
5663.630191 7822.272933 -52.124023 -1144
5660.768867 7805.851921 -54.931641 -940
5661.031204 7806.061372 -52.490234 -1118
5663.614626 7820.971818 -48.400879 -956
5654.098912 7818.216779 -50.842285 -952
5667.712098 7814.714773 -50.781250 -981
5661.588481 7815.488071 -49.926758 -1085
5643.476828 7805.010876 -53.894043 -973
5654.116480 7811.787364 -54.077148 -1119
5648.489880 7809.052367 -55.572510 -961
5644.001692 7805.625184 -56.091309 -1072
5654.678954 7802.083144 -52.795410 -936
5652.528136 7800.717383 -52.307129 -1082
5645.082078 7799.185202 -55.175781 -987
5653.341990 7809.333604 -49.346924 -1069
5646.704457 7810.946227 -51.422119 -1092
5588.490888 7824.528969 -52.856445 -1002
5558.652859 7831.673740 -59.783936 -1074
5568.799117 7826.106647 -60.943604 -1007
5560.824538 7805.525090 -61.218262 -941
5559.609723 7810.959567 -60.089111 -886
5510.889351 7828.646162 -62.164307 -1159
5511.762471 7834.498017 -61.767578 -1085
5522.301167 7820.809197 -60.913086 -991
5479.988942 7811.785388 -61.401367 -767
5477.873823 7817.711644 -59.814453 -865
5485.707842 7816.312328 -64.849854 -898
5476.091355 7812.852012 -65.521240 -771
5482.351974 7805.939912 -63.140869 -794
5506.739141 7819.904507 -60.211182 -1000
5504.270014 7800.008665 -61.462402 -901
5490.842811 7803.620109 -61.157227 -864
5528.210625 7810.570738 -61.737061 -1101
5537.634370 7816.766952 -62.011719 -934
5538.768213 7811.384981 -63.079834 -938
5524.578610 7815.168745 -62.530518 -962
5532.411776 7803.107782 -61.309814 -919
5532.078414 7808.269736 -60.577393 -967
5544.752834 7804.916392 -60.394287 -909
5550.451551 7808.294735 -62.469482 -939
5549.508308 7813.633626 -61.462402 -892
5544.485449 7809.310948 -64.636230 -1019
5544.280906 7799.931566 -60.760498 -910
5533.611977 7797.349228 -62.500000 -920
5538.883319 7802.338911 -59.936523 -1085
5543.818213 7794.641704 -61.157227 -879
5533.077928 7792.197651 -62.866211 -928
5499.075887 7786.216017 -60.821533 -952
5508.980364 7801.543510 -60.272217 -1064
5518.140680 7801.515524 -61.309814 -972
5516.583127 7807.379279 -59.967041 -954
5518.079080 7806.777300 -60.150146 -1062
5519.441084 7795.876024 -62.530518 -947
5516.127485 7789.754880 -60.363770 -1118
5495.183488 7787.716347 -62.896729 -1116
5513.275437 7787.751152 -66.314697 -1125
5501.963211 7780.398628 -62.744141 -1009
5525.854221 7788.968541 -60.089111 -959
5524.655162 7795.899541 -60.760498 -1079
5523.028405 7779.644139 -59.967041 -976
5524.315048 7784.342208 -59.967041 -981
5512.874534 7777.394922 -61.889648 -948
5511.907442 7782.714773 -60.791016 -969
5570.759202 7802.913152 -59.753418 -942
5543.269931 7789.556866 -61.523437 -908
5531.546443 7844.396892 -56.274414 -982
5553.322342 7839.328438 -52.093506 -1105
5540.569475 7840.432284 -55.358887 -1133
5541.485915 7841.827843 -54.840088 -1012
5546.137048 7841.284750 -54.412842 -1160
5549.474214 7837.349510 -58.807373 -1088
5544.989021 7841.891156 -53.710937 -1189
5539.993347 7831.224842 -52.032471 -1089
5541.199779 7836.757048 -55.297852 -981
5534.169287 7841.062870 -50.811768 -1125
5581.621049 7842.084246 -59.234619 -1127
5572.662852 7844.109010 -55.999756 -945
5593.080463 7843.969972 -58.715820 -862
5599.775119 7842.285802 -55.694580 -864
5597.818518 7844.589709 -56.610107 -1189
5579.985959 7831.953223 -54.412842 -921
5582.435573 7841.602082 -54.412842 -944
5581.611102 7836.765347 -54.595947 -938
5591.736937 7834.696552 -54.199219 -1096
5592.060584 7839.133427 -52.764893 -916
5590.769134 7834.392468 -52.734375 -927
5588.673536 7831.001083 -52.093506 -1285
5583.366776 7828.794806 -53.802490 -1091
5589.334590 7829.537263 -52.642822 -918
5549.414096 7829.452229 -53.680420 -909
5555.061019 7838.373535 -55.084229 -1028
5565.447048 7839.207009 -55.541992 -1156
5558.190398 7841.301606 -57.952881 -1147
5559.316289 7842.434829 -56.457520 -976
5569.050597 7834.742479 -55.480957 -978
5571.285622 7839.377666 -55.938721 -962
5563.484977 7831.001787 -53.497314 -1027
5546.745697 7830.055350 -56.243896 -1090
5552.025513 7833.958366 -54.260254 -984
5559.120078 7826.931068 -52.062988 -910
5555.101534 7826.143818 -52.917480 -1135
5553.816414 7823.009011 -56.243896 -899
5552.350880 7820.589286 -57.617187 -1057
5555.276328 7829.446519 -51.361084 -1230
5576.230942 7827.705566 -53.314209 -1035
5574.387776 7833.927053 -57.739258 -1101
5576.148117 7820.961690 -52.429199 -1096
5570.119133 7821.029521 -53.802490 -1085
5570.650567 7818.603085 -51.940918 -830
5566.843898 7824.936103 -49.560547 -956
5578.532044 7821.888747 -48.889160 -995
5577.667157 7819.597121 -51.361084 -1017
5561.325263 7815.609558 -53.710937 -1104
5562.674217 7820.669786 -54.290771 -833
5557.456332 7816.738114 -58.532715 -871
5566.776307 7814.260223 -56.762695 -877
5557.813352 7811.399793 -59.082031 -1064
5564.946612 7819.633341 -48.278809 -1019
5498.920399 7832.094140 -55.450439 -965
5506.663971 7835.699261 -54.962158 -1114
5516.024262 7840.360870 -54.595947 -1098
5517.394590 7842.899839 -56.304932 -975
5521.948996 7840.912727 -53.497314 -1125
5521.330119 7836.747805 -52.703857 -964
5509.617794 7834.543001 -53.863525 -987
5509.470415 7839.814392 -53.192139 -946
5505.450256 7827.583865 -58.441162 -1066
5503.380030 7825.774783 -58.105469 -1015
5515.676626 7830.867243 -51.147461 -1133
5524.827135 7830.558069 -54.901123 -994
5528.620043 7834.562621 -54.565430 -1117
5529.382964 7839.818828 -55.877686 -989
5529.124865 7839.066044 -57.403564 -1104
5528.386984 7830.159020 -54.229736 -1102
5523.052329 7828.672443 -54.870605 -1059
5535.677048 7833.011548 -53.344727 -953
5534.972773 7829.247056 -58.593750 -1120
5530.959086 7823.660392 -58.349609 -957
5527.901063 7820.594037 -56.945801 -1046
5513.749161 7823.939288 -55.206299 -1057
5514.677691 7827.960927 -56.793213 -949
5511.698025 7817.264053 -59.356689 -1065
5521.534150 7821.134035 -52.398682 -1067
5519.406850 7814.554196 -56.579590 -1007
5514.978068 7813.400360 -59.631348 -1063
5479.015760 7810.852190 -52.001953 -997
5490.055793 7822.556381 -53.833008 -1092
5497.769707 7829.964837 -54.840088 -1067
5493.648676 7826.713641 -54.565430 -1068
5486.136069 7825.362635 -56.579590 -984
5503.141972 7821.132885 -56.549072 -1053
5492.859241 7818.702684 -54.351807 -992
5498.668778 7818.420595 -56.549072 -1035
5483.846015 7822.948479 -55.389404 -1100
5485.149705 7815.788607 -57.250977 -919
5490.584041 7811.965710 -55.969238 -1083
5485.997362 7810.178143 -58.288574 -839
5484.131348 7812.515324 -51.452637 -1045
5496.222780 7812.484483 -54.901123 -1090
5503.165540 7811.076503 -58.990479 -1034
5499.081969 7812.033689 -57.800293 -965
5497.667369 7812.973979 -56.365967 -1017
5499.448415 7806.585740 -58.593750 -939
5513.143044 7813.302061 -57.800293 -1015
5509.375508 7810.879812 -57.495117 -1078
5502.075687 7802.903793 -56.152344 -1109
5488.923149 7804.703871 -53.649902 -1030
5484.017011 7802.778401 -54.046631 -979
5487.070036 7805.606459 -57.189941 -1170
5486.306544 7799.764029 -59.631348 -792
5496.460275 7796.975534 -58.410645 -924
5496.308468 7802.594851 -57.373047 -1067
5494.343112 7795.910001 -55.328369 -1050
5488.923058 7794.823856 -56.182861 -983
5494.563750 7792.454402 -58.135986 -889
5524.336555 7806.423284 -58.593750 -1021
5533.873304 7820.988567 -55.725098 -1074
5544.342398 7823.919022 -54.504395 -1070
5540.946587 7826.362545 -56.335449 -967
5546.020717 7819.713733 -59.265137 -917
5541.353638 7818.564896 -59.326172 -1139
5539.526185 7811.560586 -57.098389 -1094
5520.813216 7810.053678 -58.471680 -1177
5525.669133 7814.243069 -55.053711 -1022
5532.602277 7812.749310 -59.112549 -1049
5530.574989 7806.093116 -57.067871 -1001
5548.595773 7806.461614 -59.295654 -1149
5549.262488 7815.702330 -56.457520 -1095
5554.207237 7803.444006 -55.328369 -1029
5555.676627 7804.929582 -57.128906 -1145
5553.520050 7802.543893 -58.441162 -906
5547.862700 7797.597480 -56.091309 -1173
5530.762453 7793.043496 -55.114746 -1270
5530.674721 7795.941339 -59.387207 -1090
5535.760229 7786.294672 -58.685303 -936
5538.264492 7793.331684 -56.671143 -1058
5497.322927 7792.079963 -54.534912 -1266
5511.821944 7792.799812 -59.600830 -979
5516.941339 7798.371101 -57.250977 -1100
5501.633226 7793.920225 -59.112549 -1079
5509.315538 7788.455618 -58.990479 -992
5508.899301 7791.716000 -56.610107 -1144
5500.695701 7785.556725 -56.182861 -1100
5524.845100 7785.390222 -56.732178 -1124
5523.049730 7781.965183 -57.098389 -1145
5509.541795 7780.982236 -58.593750 -1177
5518.273453 7776.355431 -54.840088 -1208
5520.688750 7775.237824 -59.478760 -938
5509.874826 7770.587162 -54.595947 -1188
5513.651026 7772.118152 -56.854248 -988
5513.255452 7767.233338 -57.220459 -994
5591.691341 7817.243332 -53.649902 -1093
5601.470343 7821.184860 -52.642822 -1000
5608.309036 7840.156599 -53.527832 -937
5601.142452 7836.855943 -50.811768 -879
5599.178808 7831.929763 -51.513672 -1101
5600.184504 7831.990742 -50.933838 -931
5611.920347 7828.981467 -50.201416 -958
5610.495891 7834.482873 -48.980713 -902
5611.293708 7831.527147 -48.706055 -1147
5599.488511 7826.944175 -51.177979 -953
5601.419601 7818.020254 -51.879883 -1028
5594.884985 7817.645335 -50.262451 -1005
5610.075186 7823.368861 -52.001953 -1113
5616.964778 7811.413670 -52.032471 -1036
5619.387548 7813.074660 -58.258057 -1149
5616.412921 7817.338404 -53.344727 -1016
5619.890557 7825.504022 -51.391602 -1247
5620.824706 7825.507878 -50.445557 -1137
5611.981947 7823.719691 -50.781250 -971
5627.010304 7819.863619 -51.483154 -967
5619.272872 7817.669242 -47.790527 -1059
5600.840568 7810.724000 -53.527832 -940
5606.183457 7815.770806 -56.152344 -1124
5600.153761 7810.214702 -55.297852 -1038
5607.662181 7807.266737 -52.520752 -1020
5603.756169 7804.577725 -55.450439 -1053
5608.109639 7816.488603 -49.804688 -1051
5611.490456 7813.330187 -51.696777 -1024
5566.673489 7806.563157 -55.267334 -1105
5577.135061 7811.557317 -55.480957 -936
5584.955558 7815.848675 -54.687500 -1045
5584.068346 7815.101269 -51.971436 -896
5576.942367 7809.450912 -54.046631 -1042
5592.093155 7813.854281 -52.368164 -1026
5582.766708 7809.688307 -52.856445 -1072
5580.107975 7805.534904 -57.403564 -945
5565.136269 7799.048598 -58.898926 -1121
5569.353788 7808.390709 -58.563232 -907
5564.413093 7800.345667 -57.037354 -1253
5573.279751 7797.310591 -55.419922 -948
5571.260739 7808.936947 -48.980713 -1001
5576.518567 7800.052680 -50.567627 -1058
5588.999863 7799.044419 -53.527832 -1079
5590.128750 7808.146470 -55.328369 -1004
5593.501904 7802.014047 -57.464600 -980
5591.393356 7804.899560 -55.236816 -1031
5597.612559 7804.397833 -53.649902 -1014
5597.150677 7795.047298 -56.304932 -1063
5594.082989 7796.737467 -58.288574 -992
5597.167144 7802.167757 -46.386719 -1270
5573.815612 7794.536230 -55.236816 -1127
5584.724791 7794.225343 -54.565430 -974
5581.470500 7800.062155 -58.593750 -962
5583.380165 7798.501797 -54.595947 -1097
5575.770070 7794.925142 -58.258057 -1165
5573.860835 7792.034011 -56.274414 -998
5585.834785 7788.824330 -55.664062 -1012
5584.534050 7789.230711 -59.143066 -1190
5582.956365 7789.103565 -51.086426 -1106
5613.067339 7797.953382 -53.863525 -1079
5621.470584 7803.569133 -54.168701 -1044
5633.185144 7812.961134 -54.809570 -1011
5637.064121 7807.466870 -52.215576 -1103
5628.643879 7808.866757 -53.344727 -1027
5630.873575 7808.030527 -53.771973 -1003
5631.049610 7802.821066 -55.023193 -1034
5627.775376 7802.862383 -52.490234 -1007
5627.000547 7814.740128 -51.086426 -1060
5623.745404 7809.915293 -49.957275 -989
5629.885778 7806.773253 -47.760010 -1210
5607.610536 7798.282789 -57.769775 -982
5617.907690 7800.841659 -55.755615 -1085
5615.840269 7806.805997 -54.260254 -1006
5606.001479 7800.200307 -56.304932 -1080
5619.386174 7796.984486 -52.093506 -1112
5620.813865 7794.805012 -57.678223 -999
5613.581346 7806.994073 -51.086426 -1053
5633.247083 7793.367854 -53.741455 -1099
5634.632356 7801.464019 -56.549072 -1044
5632.883542 7796.904615 -56.427002 -1086
5642.183665 7798.511247 -53.741455 -1076
5640.498925 7791.230367 -57.403564 -1122
