1064
-2.741687 2.780758 -1.257838 -1198 48 44 32
-2.740075 2.780888 -1.255596 -1180 51 45 33
-2.822154 2.774338 -1.209796 -1044 59 50 19
-2.855485 2.771679 -1.189534 -1232 125 122 71
-2.850493 2.772079 -1.189296 -1313 109 112 59
-2.842359 2.772729 -1.190678 -1247 125 126 68
-2.838409 2.773045 -1.189877 -1260 129 130 72
-2.833410 2.773445 -1.189610 -1260 131 132 74
-2.832604 2.773511 -1.187174 -1288 126 127 67
-2.822709 2.774302 -1.189409 -1227 134 136 73
-2.822253 2.774339 -1.186783 -1201 135 137 74
-2.818300 2.774656 -1.185948 -1205 138 145 75
-2.811194 2.775224 -1.186713 -1249 130 135 71
-2.800932 2.776044 -1.189068 -1229 127 132 68
-2.800127 2.776110 -1.186602 -1221 137 142 78
-2.799675 2.776147 -1.183957 -1245 134 139 75
-2.792246 2.776741 -1.184930 -1234 133 138 72
-2.791797 2.776778 -1.182279 -1234 139 144 77
-2.791351 2.776815 -1.179628 -1213 138 143 76
-2.786339 2.777216 -1.179268 -1216 139 144 77
-2.782029 2.777561 -1.178546 -1236 129 134 68
-2.777015 2.777963 -1.178168 -1224 129 133 72
-2.776574 2.777999 -1.175505 -1190 120 124 65
-2.775469 2.778088 -1.173266 -1232 116 119 62
-2.769008 2.778605 -1.173493 -1209 105 110 52
-2.770725 2.778469 -1.169854 -1195 105 109 59
-2.768531 2.778646 -1.168056 -1160 96 99 54
-2.761398 2.779216 -1.168681 -1167 97 100 53
-2.700256 2.784098 -1.195754 -1218 106 108 58
-2.686696 2.785182 -1.199327 -1273 83 85 46
-2.684823 2.785332 -1.197268 -1359 68 67 39
-2.672738 2.786298 -1.200268 -1642 69 67 42
-2.755544 2.777299 -1.370499 -1214 27 27 19
-2.808214 2.773150 -1.337075 -1118 29 31 17
-2.834642 2.771068 -1.318870 -1149 67 75 38
-2.837628 2.770834 -1.314174 -1182 118 131 77
-2.838129 2.770796 -1.310910 -1195 124 134 73
-2.835430 2.771010 -1.309477 -1165 134 139 72
-2.831662 2.771308 -1.308647 -1190 131 136 70
-2.828964 2.771521 -1.307205 -1187 132 138 74
-2.827693 2.771623 -1.304949 -1170 126 135 68
-2.826466 2.771721 -1.302767 -1232 128 133 67
-2.823729 2.771937 -1.301240 -1255 122 128 66
-2.821035 2.772151 -1.299784 -1259 119 125 65
-2.817310 2.772445 -1.299000 -1247 125 128 71
-2.813144 2.772775 -1.298260 -1218 117 120 65
-2.810492 2.772985 -1.296863 -1208 114 117 64
-2.808157 2.773170 -1.295188 -1155 99 103 52
-2.807215 2.773245 -1.292638 -1178 97 104 53
-2.805241 2.773402 -1.290759 -1203 91 95 45
-2.805422 2.773389 -1.287686 -1169 98 105 51
-2.805606 2.773376 -1.284615 -1213 111 116 62
-2.802921 2.773588 -1.283127 -1146 116 121 65
-2.803152 2.773571 -1.280131 -1183 117 122 64
-2.799351 2.773872 -1.279154 -1183 119 123 64
-2.798827 2.773914 -1.276476 -1172 115 120 64
-2.797947 2.773985 -1.273994 -1149 85 88 43
-2.798509 2.773942 -1.270728 -1193 70 70 36
-2.786106 2.774920 -1.274505 -1137 68 64 35
-2.730476 2.779306 -1.301761 -879 73 63 27
-2.717987 2.780291 -1.305370 -654 108 98 63
-2.703047 2.781470 -1.310472 -834 112 99 67
-2.689497 2.782539 -1.314691 -1023 95 86 53
-2.717645 2.780325 -1.287297 -1146 66 58 37
-2.754086 2.777454 -1.265006 -1239 53 47 23
-2.753944 2.777467 -1.262099 -1185 58 53 31
-2.750141 2.777767 -1.261033 -1175 58 53 31
-2.748956 2.777862 -1.258775 -1165 57 52 30
-2.743703 2.778277 -1.258462 -1250 54 49 27
-2.741391 2.778461 -1.256693 -1245 46 43 28
-2.742753 2.778354 -1.253096 -1224 51 44 28
-2.834883 2.771094 -1.201910 -1106 60 51 20
-2.852986 2.769668 -1.189623 -1262 123 122 66
-2.846012 2.770219 -1.190416 -1280 122 125 68
-2.840127 2.770684 -1.190631 -1262 124 125 67
-2.837190 2.770917 -1.189402 -1223 131 132 74
-2.834215 2.771152 -1.188095 -1218 128 129 69
-2.830876 2.771417 -1.186970 -1293 128 130 67
-2.824619 2.771911 -1.187338 -1255 133 135 72
-2.819090 2.772348 -1.187320 -1231 140 142 79
-2.816113 2.772584 -1.185988 -1177 133 138 72
-2.812407 2.772877 -1.185022 -1255 132 137 73
-2.803218 2.773602 -1.186837 -1227 127 132 68
-2.799874 2.773867 -1.185668 -1232 132 137 73
-2.799822 2.773872 -1.182828 -1255 127 132 66
-2.798309 2.773993 -1.180729 -1282 132 137 71
-2.793465 2.774376 -1.180210 -1255 136 141 75
-2.789794 2.774666 -1.179282 -1221 138 143 77
-2.782053 2.775277 -1.180291 -1209 138 143 79
-2.780176 2.775427 -1.178355 -1237 131 136 70
-2.776465 2.775720 -1.177330 -1209 128 133 69
-2.777122 2.775670 -1.174034 -1209 129 133 72
-2.773046 2.775992 -1.173183 -1203 117 120 65
-2.771174 2.776141 -1.171235 -1190 113 116 59
-2.770039 2.776231 -1.168922 -1188 114 119 65
-2.757136 2.777250 -1.172397 -1155 100 106 58
-2.712614 2.780761 -1.191454 -1182 100 103 56
-2.690105 2.782536 -1.199534 -1250 97 100 53
-2.685626 2.782890 -1.198758 -1257 96 102 58
-2.681884 2.783187 -1.197615 -1290 85 91 47
-2.677404 2.783541 -1.196823 -1414 85 84 53
-2.768953 2.773931 -1.367357 -1182 30 27 20
-2.770435 2.773817 -1.363411 -1175 34 35 27
-2.806788 2.770990 -1.339370 -1175 35 39 24
-2.839352 2.768458 -1.317706 -1180 76 84 47
-2.840847 2.768342 -1.313766 -1214 122 132 69
-2.838902 2.768495 -1.311995 -1232 121 130 67
-2.834800 2.768815 -1.311358 -1219 129 135 71
-2.833522 2.768916 -1.309104 -1221 130 135 69
-2.831893 2.769044 -1.307050 -1209 133 138 74
-2.826730 2.769446 -1.306999 -1195 130 136 72
-2.827580 2.769381 -1.303537 -1173 127 133 69
-2.825248 2.769564 -1.301875 -1216 120 126 64
-2.823625 2.769691 -1.299811 -1219 118 124 64
-2.819169 2.770039 -1.299338 -1245 117 120 63
-2.815067 2.770359 -1.298659 -1244 114 117 62
-2.813092 2.770514 -1.296782 -1224 106 109 56
-2.808279 2.770890 -1.296487 -1232 96 101 47
-2.808082 2.770906 -1.293614 -1167 100 107 56
-2.808599 2.770867 -1.290346 -1155 118 127 74
-2.808053 2.770911 -1.287673 -1162 119 127 68
-2.803597 2.771259 -1.287161 -1201 112 117 63
-2.799892 2.771548 -1.286323 -1183 116 121 65
-2.803269 2.771286 -1.281488 -1201 111 114 57
-2.803447 2.771274 -1.278420 -1208 116 117 59
-2.798637 2.771649 -1.278087 -1177 107 110 57
-2.799176 2.771608 -1.274823 -1198 108 111 64
-2.799362 2.771595 -1.271755 -1224 72 74 37
-2.796339 2.771831 -1.270436 -1129 65 65 37
-2.793315 2.772068 -1.269113 -1175 69 66 35
-2.741710 2.776084 -1.294159 -740 119 121 84
-2.718946 2.777857 -1.303317 -957 64 64 30
-2.718392 2.777901 -1.300561 -949 62 55 26
-2.716051 2.778084 -1.298767 -900 69 64 35
-2.715144 2.778156 -1.296202 -933 62 61 31
-2.703884 2.779033 -1.299269 -1036 64 58 32
-2.704053 2.779021 -1.296118 -1096 87 81 55
-2.755145 2.775047 -1.265792 -1209 78 74 49
-2.754631 2.775088 -1.263077 -1214 50 48 25
-2.753043 2.775213 -1.260933 -1159 55 52 33
-2.752894 2.775226 -1.258028 -1170 51 48 29
-2.748073 2.775602 -1.257585 -1167 52 50 29
-2.740771 2.776171 -1.258533 -1219 52 50 27
-2.740627 2.776184 -1.255619 -1223 47 44 29
-2.740845 2.776168 -1.252517 -1172 51 43 30
-2.836929 2.768692 -1.199418 -1096 88 82 46
-2.852387 2.767491 -1.188609 -1291 122 121 65
-2.848707 2.767778 -1.187684 -1288 116 117 59
-2.842860 2.768234 -1.187874 -1236 125 126 68
-2.838456 2.768578 -1.187307 -1262 134 135 75
-2.837664 2.768641 -1.184871 -1257 130 131 71
-2.830367 2.769210 -1.185779 -1244 130 132 69
-2.822343 2.769835 -1.187044 -1221 136 138 75
-2.817571 2.770208 -1.186628 -1237 135 140 76
-2.812436 2.770609 -1.186389 -1263 133 138 74
-2.810196 2.770784 -1.184666 -1255 130 135 71
-2.804334 2.771241 -1.184779 -1255 130 135 71
-2.798795 2.771674 -1.184625 -1250 133 138 74
-2.796955 2.771818 -1.182775 -1255 125 130 64
-2.793628 2.772078 -1.181580 -1250 134 139 73
-2.793570 2.772084 -1.178738 -1232 139 144 78
-2.783342 2.772881 -1.180996 -1206 134 138 77
-2.784776 2.772770 -1.177492 -1280 130 135 71
-2.781450 2.773030 -1.176277 -1245 132 137 71
-2.774485 2.773574 -1.176866 -1236 128 133 69
-2.772978 2.773692 -1.174733 -1247 123 127 66
-2.770380 2.773895 -1.173138 -1203 117 120 65
-2.768876 2.774014 -1.171000 -1198 111 114 59
-2.761541 2.774586 -1.171733 -1159 111 116 60
-2.695837 2.779700 -1.201127 -1254 94 95 51
-2.690290 2.780133 -1.200880 -1265 96 97 53
-2.684741 2.780566 -1.200623 -1257 95 101 57
-2.687593 2.780346 -1.196258 -1245 96 102 56
-2.683506 2.780665 -1.195279 -1270 102 105 62
-2.680517 2.780899 -1.193759 -1576 78 77 49
-2.765711 2.771891 -1.374138 -1229 20 21 15
-2.776554 2.771059 -1.364851 -1185 28 31 20
-2.772008 2.771410 -1.364401 -1208 42 43 29
-2.773852 2.771269 -1.360153 -1223 42 45 24
-2.837620 2.766373 -1.320353 -1178 53 60 27
-2.841028 2.766112 -1.315504 -1206 113 122 65
-2.836482 2.766462 -1.315032 -1219 117 126 59
-2.836676 2.766449 -1.312035 -1208 115 121 61
-2.831814 2.766823 -1.311830 -1213 123 129 65
-2.835557 2.766537 -1.306716 -1191 124 130 68
-2.828543 2.767077 -1.307726 -1226 119 125 65
-2.830501 2.766927 -1.303636 -1223 122 128 66
-2.827394 2.767167 -1.302322 -1257 120 126 66
-2.822212 2.767566 -1.302366 -1244 113 118 60
-2.820585 2.767692 -1.300303 -1247 107 110 55
-2.813920 2.768205 -1.301067 -1241 104 107 54
-2.819176 2.767803 -1.295238 -1234 117 122 68
-2.812109 2.768347 -1.296117 -1227 106 114 57
-2.809766 2.768528 -1.294445 -1231 117 126 69
-2.808546 2.768623 -1.292241 -1200 114 122 62
-2.806927 2.768748 -1.290162 -1167 118 123 65
-2.806394 2.768790 -1.287483 -1149 117 122 66
-2.803695 2.768999 -1.286000 -1178 114 117 64
-2.802764 2.769071 -1.283443 -1188 111 114 59
-2.802641 2.769082 -1.280636 -1150 110 113 58
-2.802842 2.769068 -1.277558 -1182 110 113 58
-2.798340 2.769415 -1.277056 -1118 111 115 64
-2.798184 2.769428 -1.274174 -1170 96 99 56
-2.799119 2.769357 -1.270702 -1150 70 72 33
-2.797520 2.769481 -1.268610 -1211 70 66 37
-2.795520 2.769636 -1.266640 -1193 65 59 27
-2.739138 2.773968 -1.294244 -1214 113 109 72
-2.670630 2.779231 -1.328046 -1367 88 95 54
-2.692277 2.777570 -1.313393 -1113 73 67 41
-2.704090 2.776664 -1.303973 -1049 71 69 46
-2.717375 2.775644 -1.293800 -1042 60 55 33
-2.722668 2.775239 -1.287931 -863 61 55 31
-2.745455 2.773490 -1.272762 -1209 68 62 36
-2.757702 2.772550 -1.263256 -1205 53 51 28
-2.750314 2.773119 -1.264287 -1182 51 50 29
-2.752327 2.772965 -1.260138 -1216 51 50 30
-2.749641 2.773173 -1.258573 -1193 53 50 31
-2.745130 2.773520 -1.257965 -1200 53 48 28
-2.741388 2.773809 -1.257041 -1213 51 46 26
-2.742725 2.773708 -1.253354 -1218 48 42 26
-2.740774 2.773859 -1.251392 -1157 49 42 26
-2.828124 2.767149 -1.202895 -1047 57 50 22
-2.847461 2.765665 -1.189977 -1259 118 116 65
-2.842642 2.766036 -1.189637 -1250 123 124 66
-2.841120 2.766154 -1.187583 -1272 127 130 73
-2.839233 2.766300 -1.185715 -1231 126 127 67
-2.835513 2.766587 -1.184790 -1249 124 125 65
-2.825147 2.767385 -1.187177 -1267 136 140 79
-2.819624 2.767810 -1.187246 -1252 127 133 69
-2.819206 2.767843 -1.184603 -1290 136 142 78
-2.813276 2.768300 -1.184771 -1247 133 140 73
-2.811059 2.768472 -1.183132 -1260 127 131 70
-2.800709 2.769268 -1.185523 -1221 129 133 72
-2.801362 2.769219 -1.182231 -1229 131 136 72
-2.800619 2.769277 -1.179833 -1255 130 135 69
-2.792839 2.769876 -1.180886 -1252 131 137 73
-2.792762 2.769883 -1.177962 -1250 129 135 71
-2.789810 2.770111 -1.176666 -1232 131 136 72
-2.783500 2.770597 -1.176950 -1257 129 134 70
-2.776078 2.771168 -1.177776 -1193 130 135 71
-2.774565 2.771286 -1.175648 -1262 121 125 64
-2.771575 2.771517 -1.174252 -1247 116 119 62
-2.771915 2.771492 -1.171204 -1218 121 124 69
-2.755605 2.772746 -1.176374 -1169 110 113 60
-2.700774 2.776960 -1.200460 -1219 110 111 67
-2.688124 2.777933 -1.203709 -1273 88 89 47
-2.682136 2.778394 -1.203668 -1232 87 90 47
-2.683563 2.778286 -1.199995 -1234 93 99 53
-2.682768 2.778348 -1.197409 -1260 94 97 50
-2.680120 2.778553 -1.195726 -1332 99 100 60
-2.768893 2.769321 -1.374013 -1237 23 20 15
-2.771142 2.769151 -1.369613 -1216 31 34 23
-2.775552 2.768818 -1.363970 -1224 40 41 25
-2.772786 2.769029 -1.362491 -1209 46 43 28
-2.821420 2.765344 -1.331368 -1147 40 45 15
-2.840983 2.763863 -1.317104 -1236 110 119 66
-2.837542 2.764124 -1.316099 -1205 116 124 64
-2.838061 2.764086 -1.312821 -1211 118 123 67
-2.834982 2.764321 -1.311603 -1173 127 136 73
-2.833386 2.764443 -1.309631 -1201 126 136 75
-2.832112 2.764541 -1.307379 -1188 128 134 70
-2.829035 2.764775 -1.306149 -1241 122 128 66
-2.825958 2.765009 -1.304915 -1237 122 128 66
-2.823605 2.765189 -1.303268 -1254 118 123 65
-2.821975 2.765313 -1.301210 -1260 116 121 65
-2.819262 2.765520 -1.299760 -1262 117 120 67
-2.821254 2.765370 -1.295667 -1245 110 115 61
-2.813114 2.765988 -1.297252 -1260 112 120 63
-2.811127 2.766140 -1.295384 -1282 111 119 62
-2.811276 2.766130 -1.292229 -1203 126 132 72
-2.811147 2.766141 -1.289424 -1229 118 124 62
-2.805175 2.766595 -1.289764 -1170 118 123 65
-2.804646 2.766636 -1.287082 -1218 115 118 65
-2.803394 2.766732 -1.284801 -1169 108 111 58
-2.803962 2.766690 -1.281519 -1155 107 110 57
-2.800129 2.766982 -1.280561 -1195 111 114 61
-2.801835 2.766854 -1.276756 -1172 103 108 54
-2.797681 2.767170 -1.276064 -1183 111 111 61
-2.797168 2.767210 -1.273379 -1157 100 104 53
-2.797388 2.767194 -1.270298 -1201 71 73 33
-2.795423 2.767344 -1.268405 -1173 68 64 37
-2.778134 2.768656 -1.274802 -937 72 65 36
-2.664756 2.777256 -1.320563 -1218 64 59 39
-2.709230 2.773886 -1.293738 -1065 66 60 38
-2.757784 2.770207 -1.264860 -1201 62 60 35
-2.753256 2.770551 -1.264282 -1193 57 56 35
-2.752026 2.770645 -1.261950 -1191 52 51 31
-2.753001 2.770573 -1.258454 -1208 51 48 29
-2.752878 2.770583 -1.255541 -1224 53 48 29
-2.743211 2.771317 -1.257647 -1162 52 47 28
-2.742724 2.771355 -1.254920 -1198 49 44 25
-2.737092 2.771783 -1.254884 -1170 44 41 24
-2.737344 2.771766 -1.251767 -1173 49 41 30
-2.806785 2.766502 -1.212644 -986 57 50 22
-2.839482 2.764025 -1.192778 -1185 119 115 70
-2.847202 2.763440 -1.186026 -1296 127 128 70
-2.841260 2.763892 -1.186263 -1255 127 130 73
-2.840478 2.763952 -1.183829 -1262 122 123 66
-2.834532 2.764404 -1.184051 -1245 122 126 67
-2.831168 2.764660 -1.182936 -1232 128 134 72
-2.821895 2.765365 -1.184839 -1277 128 134 70
-2.817050 2.765733 -1.184462 -1252 137 143 79
-2.814791 2.765905 -1.182758 -1254 129 135 71
-2.811794 2.766134 -1.181427 -1270 128 132 73
-2.802506 2.766839 -1.183277 -1226 132 136 75
-2.798766 2.767124 -1.182304 -1216 133 138 74
-2.800953 2.766959 -1.178337 -1270 129 134 70
-2.796473 2.767300 -1.177730 -1288 123 129 65
-2.790881 2.767725 -1.177672 -1275 127 133 71
-2.790480 2.767757 -1.175007 -1239 126 130 69
-2.784143 2.768238 -1.175305 -1198 131 136 72
-2.778175 2.768692 -1.175407 -1234 130 134 73
-2.775920 2.768864 -1.173653 -1232 122 126 67
-2.765859 2.769628 -1.175762 -1200 121 124 69
-2.755048 2.770449 -1.178219 -1159 124 127 70
-2.698495 2.774738 -1.203286 -1227 99 101 52
-2.685786 2.775703 -1.206572 -1203 99 102 59
-2.686439 2.775655 -1.203180 -1226 99 101 61
-2.685309 2.775742 -1.200859 -1268 97 100 57
-2.682279 2.775973 -1.199367 -1288 96 97 55
-2.675854 2.776461 -1.199426 -1282 94 95 53
-2.675101 2.776519 -1.196913 -1449 95 95 61
-2.773222 2.766678 -1.370013 -1196 31 31 21
-2.776492 2.766435 -1.365123 -1205 41 42 24
-2.773403 2.766667 -1.363827 -1178 43 44 26
-2.778752 2.766268 -1.357656 -1167 44 45 31
-2.833710 2.762159 -1.322925 -1187 70 77 35
-2.841220 2.761599 -1.315614 -1203 116 124 65
-2.840289 2.761670 -1.313165 -1185 122 128 68
-2.837600 2.761872 -1.311723 -1203 117 126 63
-2.832443 2.762259 -1.311686 -1154 131 141 70
-2.832222 2.762276 -1.308828 -1157 135 142 75
-2.833105 2.762211 -1.305440 -1223 132 138 74
-2.829007 2.762519 -1.304786 -1206 121 127 67
-2.823495 2.762932 -1.304925 -1245 118 123 65
-2.827880 2.762605 -1.299469 -1195 117 122 64
-2.823784 2.762913 -1.298801 -1214 119 124 66
-2.818624 2.763300 -1.298722 -1201 114 122 65
-2.817359 2.763396 -1.296453 -1231 117 125 66
-2.817867 2.763359 -1.293191 -1245 119 124 68
-2.809516 2.763985 -1.294874 -1247 104 107 54
-2.808963 2.764027 -1.292201 -1216 120 123 66
-2.806994 2.764175 -1.290315 -1195 119 125 65
-2.806448 2.764217 -1.287640 -1129 113 116 61
-2.802390 2.764522 -1.287001 -1141 117 120 65
-2.799319 2.764753 -1.285621 -1149 117 120 67
-2.805577 2.764286 -1.279299 -1155 111 116 62
-2.799703 2.764726 -1.279553 -1170 110 113 58
-2.800237 2.764688 -1.276290 -1160 108 111 56
-2.798994 2.764782 -1.274002 -1185 107 112 56
-2.798110 2.764849 -1.271518 -1144 106 113 59
-2.795445 2.765050 -1.270003 -1214 77 79 40
-2.795636 2.765036 -1.266936 -1193 68 64 37
-2.758334 2.767828 -1.284137 -1088 85 79 47
-2.726144 2.770242 -1.283304 -1126 59 54 32
-2.755003 2.768085 -1.264940 -1185 55 53 30
-2.755206 2.768071 -1.261846 -1162 53 51 30
-2.750748 2.768406 -1.261220 -1219 54 52 31
-2.749559 2.768496 -1.258956 -1193 52 47 27
-2.746537 2.768723 -1.257562 -1203 52 47 28
-2.741000 2.769138 -1.257484 -1219 48 43 24
-2.739057 2.769285 -1.255513 -1155 49 43 27
-2.738554 2.769324 -1.252787 -1154 45 42 25
-2.733735 2.769685 -1.252312 -1160 48 42 28
-2.756645 2.767973 -1.237412 -1144 51 43 22
-2.823942 2.762940 -1.199646 -1106 113 109 64
-2.843685 2.761464 -1.186563 -1285 114 113 59
-2.841450 2.761632 -1.184877 -1259 123 127 66
-2.841742 2.761611 -1.181887 -1265 122 125 68
-2.832613 2.762296 -1.183648 -1277 121 125 66
-2.830054 2.762488 -1.182205 -1262 127 133 71
-2.821315 2.763143 -1.183826 -1265 126 132 70
-2.817994 2.763392 -1.182665 -1252 128 132 71
-2.813951 2.763696 -1.181866 -1231 126 130 69
-2.804114 2.764433 -1.183998 -1277 129 133 72
-2.802601 2.764547 -1.181897 -1193 133 135 72
-2.802177 2.764580 -1.179246 -1218 133 138 74
-2.801394 2.764640 -1.176777 -1218 133 137 76
-2.797385 2.764941 -1.176020 -1206 126 130 69
-2.792976 2.765272 -1.175365 -1259 128 134 72
-2.786751 2.765739 -1.175609 -1268 126 130 71
-2.773621 2.766722 -1.179283 -1201 108 111 54
-2.762662 2.767544 -1.181847 -1175 118 122 63
-2.749877 2.768501 -1.185291 -1154 101 106 52
-2.727260 2.770194 -1.193570 -1169 96 103 51
-2.692977 2.772761 -1.207552 -1244 97 101 51
-2.687068 2.773204 -1.207486 -1224 92 95 52
-2.685165 2.773347 -1.205442 -1241 91 93 53
-2.681806 2.773600 -1.204108 -1206 85 87 47
-2.680635 2.773689 -1.201701 -1260 83 85 46
-2.681291 2.773641 -1.198403 -1316 81 81 43
-2.673190 2.774248 -1.199366 -1321 93 91 53
-2.775129 2.764243 -1.370905 -1180 17 17 7
-2.774507 2.764290 -1.368182 -1226 42 43 29
-2.770721 2.764570 -1.367397 -1209 44 43 25
-2.770104 2.764617 -1.364671 -1223 45 44 26
-2.804096 2.762110 -1.341883 -1152 47 51 26
-2.842506 2.759277 -1.316843 -1213 100 108 57
-2.840111 2.759455 -1.315146 -1201 120 129 66
-2.838874 2.759547 -1.312977 -1185 121 125 64
-2.836880 2.759696 -1.311142 -1157 126 132 68
-2.834489 2.759873 -1.309436 -1201 134 140 76
-2.832857 2.759995 -1.307392 -1191 130 136 72
-2.831227 2.760116 -1.305345 -1216 128 134 72
-2.830317 2.760184 -1.302891 -1250 122 128 68
-2.824741 2.760597 -1.303072 -1244 122 128 68
-2.823115 2.760718 -1.301016 -1232 123 129 69
-2.821532 2.760836 -1.299033 -1205 121 127 67
-2.817032 2.761169 -1.298587 -1214 116 124 65
-2.820087 2.760945 -1.293905 -1244 125 131 69
-2.814869 2.761331 -1.293853 -1275 119 122 65
-2.810729 2.761638 -1.293191 -1203 115 118 63
-2.813076 2.761466 -1.288915 -1178 123 126 69
-2.807815 2.761855 -1.288771 -1196 120 126 66
-2.806243 2.761972 -1.286770 -1187 119 122 65
-2.804992 2.762066 -1.284493 -1178 121 124 67
-2.803703 2.762162 -1.282141 -1119 119 124 66
-2.800328 2.762412 -1.281127 -1147 116 119 62
-2.802338 2.762265 -1.277061 -1165 113 116 61
-2.802906 2.762224 -1.273792 -1167 115 118 63
-2.799496 2.762477 -1.272696 -1139 105 113 56
-2.798260 2.762569 -1.270413 -1142 102 109 58
-2.795173 2.762798 -1.269037 -1183 99 101 61
-2.793577 2.762917 -1.266946 -1226 75 72 39
-2.733928 2.767320 -1.296202 -1355 142 137 95
-2.719891 2.768363 -1.285652 -1198 58 53 31
-2.747778 2.766306 -1.267817 -1137 70 68 45
-2.752741 2.765941 -1.262200 -1203 55 53 30
-2.751150 2.766060 -1.260063 -1201 55 50 30
-2.746643 2.766394 -1.259461 -1203 53 48 28
-2.745054 2.766512 -1.257317 -1227 50 45 26
-2.740182 2.766873 -1.256894 -1223 52 47 28
-2.735673 2.767207 -1.256272 -1154 49 43 27
-2.733721 2.767352 -1.254306 -1137 48 45 26
-2.735024 2.767257 -1.250547 -1172 48 42 28
-2.735312 2.767237 -1.247515 -1170 47 39 26
-2.805859 2.762031 -1.207982 -1057 58 51 22
-2.836518 2.759770 -1.189158 -1223 122 120 72
-2.840129 2.759504 -1.184456 -1249 118 119 61
-2.840447 2.759482 -1.181459 -1254 132 136 77
-2.830901 2.760187 -1.183619 -1296 123 127 68
-2.828615 2.760357 -1.181858 -1254 125 129 70
-2.817958 2.761145 -1.184552 -1259 130 131 73
-2.813135 2.761502 -1.184159 -1241 123 124 66
-2.810884 2.761670 -1.182449 -1283 134 135 75
-2.803853 2.762190 -1.183160 -1229 134 136 73
-2.800497 2.762438 -1.181997 -1218 134 135 75
-2.801192 2.762388 -1.178787 -1182 132 136 75
-2.801523 2.762365 -1.175764 -1206 134 138 77
-2.797435 2.762668 -1.174962 -1250 130 134 73
-2.794083 2.762916 -1.173784 -1236 126 132 72
-2.789957 2.763222 -1.172894 -1257 125 128 71
-2.753793 2.765893 -1.188137 -1137 116 121 65
-2.697987 2.770013 -1.212957 -1239 110 114 63
-2.692007 2.770456 -1.212951 -1227 110 113 66
-2.688612 2.770708 -1.211656 -1255 98 104 56
-2.685587 2.770932 -1.210173 -1259 94 97 52
-2.685855 2.770914 -1.206969 -1278 95 98 55
-2.682833 2.771138 -1.205480 -1288 95 98 55
-2.680552 2.771308 -1.203623 -1257 84 89 49
-2.679014 2.771422 -1.201401 -1242 87 91 54
-2.674179 2.771780 -1.200879 -1268 91 91 57
-2.675982 2.771649 -1.197029 -1547 89 86 55
-2.777779 2.761676 -1.371271 -1187 35 35 23
-2.774474 2.761918 -1.370106 -1200 43 44 30
-2.776089 2.761801 -1.366080 -1196 48 47 29
-2.771761 2.762117 -1.365405 -1206 50 49 31
-2.772071 2.762096 -1.362141 -1200 47 46 26
-2.829592 2.757912 -1.326007 -1169 48 51 24
-2.841120 2.757075 -1.316378 -1236 113 123 63
-2.836548 2.757408 -1.316019 -1201 116 122 58
-2.837899 2.757311 -1.312262 -1234 119 125 63
-2.836291 2.757429 -1.310202 -1191 123 129 65
-2.833696 2.757619 -1.308702 -1187 130 136 72
-2.831432 2.757785 -1.307011 -1190 129 135 71
-2.829499 2.757927 -1.305130 -1203 129 135 73
-2.829588 2.757922 -1.302198 -1183 125 131 69
-2.826668 2.758135 -1.300873 -1245 123 129 67
-2.823419 2.758373 -1.299729 -1211 122 128 66
-2.819838 2.758634 -1.298765 -1214 126 132 68
-2.817911 2.758776 -1.296869 -1208 130 137 70
-2.816317 2.758893 -1.294785 -1254 122 128 66
-2.809758 2.759371 -1.295470 -1232 113 117 58
-2.811478 2.759247 -1.291534 -1208 116 120 61
-2.808894 2.759436 -1.289994 -1213 123 127 68
-2.807306 2.759553 -1.287900 -1195 124 130 70
-2.807047 2.759573 -1.285070 -1188 117 123 63
-2.806460 2.759617 -1.282424 -1103 120 124 65
-2.805543 2.759685 -1.279961 -1196 122 126 67
-2.803632 2.759825 -1.278045 -1162 119 122 65
-2.799061 2.760159 -1.277582 -1137 117 120 65
-2.797152 2.760299 -1.275657 -1152 121 124 69
-2.798241 2.760221 -1.272098 -1175 117 120 65
-2.798002 2.760239 -1.269266 -1182 110 114 63
-2.796099 2.760379 -1.267338 -1188 103 105 56
-2.769851 2.762290 -1.278575 -998 93 92 46
-2.713251 2.766409 -1.306217 -646 162 145 101
-2.693281 2.767864 -1.313906 -1049 179 166 114
-2.674964 2.769198 -1.320660 -1368 115 111 63
-2.719961 2.765927 -1.287377 -1209 63 59 32
-2.742477 2.764290 -1.272371 -1062 55 53 30
-2.752627 2.763552 -1.263985 -1206 55 53 32
-2.752402 2.763570 -1.261118 -1223 55 53 30
-2.749873 2.763755 -1.259566 -1244 56 51 31
-2.749614 2.763775 -1.256624 -1191 51 46 26
-2.743692 2.764207 -1.256755 -1232 49 44 25
-2.736423 2.764737 -1.257579 -1154 49 43 27
-2.735199 2.764828 -1.255228 -1144 48 42 26
-2.735659 2.764795 -1.251999 -1169 47 41 25
-2.734816 2.764858 -1.249548 -1191 43 41 26
-2.735244 2.764828 -1.246247 -1193 47 41 25
-2.762691 2.762832 -1.229154 -1249 58 51 25
-2.810007 2.759389 -1.201778 -1175 95 92 49
-2.832771 2.757734 -1.187173 -1203 115 115 65
-2.832966 2.757721 -1.184226 -1231 125 125 73
-2.832153 2.757781 -1.181799 -1267 119 120 63
-2.827292 2.758136 -1.181443 -1267 120 121 64
-2.804190 2.759819 -1.190382 -1173 115 113 62
-2.809792 2.759412 -1.184660 -1214 121 121 69
-2.814050 2.759103 -1.179638 -1275 125 126 69
-2.808169 2.759532 -1.179762 -1249 130 131 71
-2.802961 2.759912 -1.179535 -1200 130 131 71
-2.804863 2.759775 -1.175716 -1209 127 131 70
-2.799015 2.760202 -1.175890 -1223 132 136 75
-2.796480 2.760388 -1.174208 -1232 134 138 79
-2.793305 2.760620 -1.172935 -1250 123 129 69
-2.789452 2.760901 -1.171995 -1267 124 127 70
-2.736715 2.764741 -1.195365 -1129 116 121 67
-2.689024 2.768213 -1.216102 -1193 104 108 58
-2.688559 2.768248 -1.213444 -1216 109 113 63
-2.684660 2.768533 -1.212388 -1216 106 113 62
-2.684502 2.768546 -1.209482 -1241 108 114 66
-2.680603 2.768831 -1.208416 -1209 98 104 56
-2.679088 2.768942 -1.206176 -1249 102 108 62
-2.675532 2.769202 -1.204933 -1244 102 109 57
-2.674739 2.769261 -1.202432 -1247 99 103 53
-2.663645 2.770070 -1.204749 -1340 88 85 54
-2.776178 2.759485 -1.373818 -1200 42 40 27
-2.775581 2.759529 -1.371174 -1234 47 46 28
-2.774201 2.759629 -1.368789 -1229 49 48 28
-2.775011 2.759572 -1.365331 -1218 49 48 28
-2.765964 2.760222 -1.367481 -1183 50 49 29
-2.775156 2.759564 -1.359086 -1183 50 48 27
-2.822281 2.756184 -1.328879 -1180 60 61 30
-2.839604 2.754942 -1.315920 -1254 117 123 63
-2.839025 2.754985 -1.313271 -1219 115 121 61
-2.838800 2.755002 -1.310420 -1223 125 131 69
-2.832949 2.755423 -1.310782 -1195 124 130 68
-2.832376 2.755465 -1.308128 -1195 128 134 70
-2.836033 2.755204 -1.303073 -1209 124 130 66
-2.830886 2.755574 -1.303019 -1196 126 132 68
-2.827501 2.755818 -1.301960 -1227 128 134 70
-2.824468 2.756037 -1.300695 -1239 129 133 74
-2.820023 2.756357 -1.300221 -1216 126 132 72
-2.822996 2.756145 -1.295575 -1227 130 136 72
-2.820673 2.756313 -1.293905 -1190 129 135 71
-2.814107 2.756785 -1.294603 -1227 125 131 69
-2.812846 2.756877 -1.292330 -1200 121 125 64
-2.812690 2.756889 -1.289538 -1198 124 128 67
-2.808600 2.757184 -1.288836 -1211 130 134 73
-2.804154 2.757504 -1.288323 -1185 127 133 71
-2.803964 2.757519 -1.285454 -1231 126 132 70
-2.803422 2.757559 -1.282780 -1142 125 129 70
-2.800752 2.757751 -1.281277 -1155 116 120 61
-2.799860 2.757816 -1.278797 -1116 120 123 66
-2.798259 2.757932 -1.276704 -1196 118 121 64
-2.797016 2.758023 -1.274416 -1157 115 118 63
-2.797199 2.758011 -1.271352 -1183 108 111 56
-2.796673 2.758050 -1.268676 -1165 106 109 52
-2.782257 2.759085 -1.273523 -1157 93 103 50
-2.737891 2.762270 -1.294515 -1124 66 58 22
-2.732707 2.762643 -1.294280 -1160 75 56 23
-2.729663 2.762863 -1.292884 -1144 90 76 37
-2.714124 2.763979 -1.298185 -986 71 66 36
-2.708216 2.764404 -1.298296 -998 95 89 63
-2.722318 2.763393 -1.287716 -1052 88 82 56
-2.755391 2.761021 -1.267075 -1226 57 53 28
-2.752726 2.761214 -1.265503 -1187 56 53 34
-2.752965 2.761198 -1.262485 -1231 56 54 33
-2.749946 2.761416 -1.261097 -1236 55 53 30
-2.748719 2.761505 -1.258760 -1223 56 51 31
-2.742116 2.761980 -1.259251 -1219 50 45 26
-2.739814 2.762146 -1.257471 -1183 49 44 25
-2.738590 2.762235 -1.255123 -1141 50 44 28
-2.733419 2.762607 -1.254837 -1111 49 43 27
-2.736509 2.762387 -1.250238 -1146 49 43 27
-2.729221 2.762911 -1.251138 -1167 47 46 28
-2.744148 2.761841 -1.240316 -1150 49 44 24
-2.755895 2.760999 -1.231275 -1275 71 65 39
-2.750416 2.761393 -1.231247 -1260 74 70 35
-2.754981 2.761067 -1.225945 -1223 73 69 31
-2.805286 2.757458 -1.197088 -1162 112 109 68
-2.813173 2.756893 -1.190264 -1211 113 112 58
-2.796107 2.758119 -1.196025 -1128 113 110 69
-2.731420 2.762763 -1.226097 -1226 70 67 32
-2.804655 2.757508 -1.186010 -1146 102 101 57
-2.807079 2.757335 -1.181824 -1224 131 132 74
-2.809546 2.757159 -1.177717 -1213 129 131 66
-2.805183 2.757473 -1.177154 -1219 128 129 69
-2.801507 2.757738 -1.176147 -1195 125 129 70
-2.801451 2.757743 -1.173317 -1206 129 133 74
-2.798138 2.757982 -1.172120 -1231 131 136 72
-2.794825 2.758221 -1.170917 -1282 126 132 70
-2.779947 2.759290 -1.175563 -1182 114 117 64
-2.692796 2.765547 -1.215901 -1226 108 113 59
-2.689111 2.765812 -1.214842 -1229 112 117 63
-2.686115 2.766029 -1.213342 -1167 113 118 62
-2.681665 2.766349 -1.212553 -1237 115 123 66
-2.682993 2.766255 -1.208819 -1267 109 116 64
-2.681128 2.766390 -1.206848 -1224 103 109 61
-2.678500 2.766580 -1.205154 -1237 105 108 61
-2.676237 2.766744 -1.203279 -1260 99 101 54
-2.671790 2.767064 -1.202463 -1619 90 85 53
-2.778472 2.757015 -1.374396 -1216 27 25 13
-2.781457 2.756805 -1.369570 -1203 49 48 30
-2.776130 2.757183 -1.369593 -1227 49 48 27
-2.772466 2.757444 -1.368639 -1185 49 48 28
-2.769467 2.757657 -1.367294 -1227 48 45 26
-2.768136 2.757752 -1.364981 -1209 49 46 27
-2.770142 2.757611 -1.360744 -1209 50 48 33
-2.816870 2.754307 -1.330791 -1164 46 49 20
-2.840616 2.752628 -1.314155 -1201 122 128 68
-2.838670 2.752767 -1.312296 -1229 129 135 75
-2.841028 2.752601 -1.307878 -1229 122 128 66
-2.836746 2.752905 -1.307352 -1241 126 132 70
-2.834470 2.753067 -1.305678 -1231 124 130 66
-2.832196 2.753229 -1.304000 -1218 127 133 69
-2.830258 2.753368 -1.302129 -1209 126 133 66
-2.827692 2.753550 -1.300708 -1226 126 131 67
-2.823744 2.753831 -1.299965 -1147 124 128 69
-2.822815 2.753898 -1.297518 -1244 127 133 71
-2.822897 2.753893 -1.294506 -1201 129 135 71
-2.816262 2.754363 -1.295253 -1216 127 133 69
-2.816684 2.754335 -1.292049 -1213 121 127 65
-2.811728 2.754687 -1.291843 -1180 121 127 65
-2.810135 2.754800 -1.289760 -1141 125 129 68
-2.804504 2.755200 -1.289913 -1173 129 135 71
-2.805271 2.755147 -1.286518 -1149 130 136 72
-2.805032 2.755165 -1.283683 -1188 125 131 69
-2.802097 2.755374 -1.282333 -1167 122 126 67
-2.799838 2.755534 -1.280609 -1187 122 126 67
-2.800957 2.755456 -1.277032 -1160 116 119 62
-2.799378 2.755569 -1.274936 -1159 114 117 60
-2.797760 2.755685 -1.272761 -1172 116 119 64
-2.790435 2.756204 -1.273786 -1180 101 103 56
-2.775323 2.757275 -1.279017 -1126 96 94 53
-2.739544 2.759807 -1.295392 -1132 64 63 33
-2.735236 2.760113 -1.294694 -1121 63 59 32
-2.729612 2.760512 -1.294797 -1231 75 69 45
-2.732423 2.760315 -1.290258 -1195 72 67 45
-2.732526 2.760309 -1.287180 -1173 60 55 36
-2.733990 2.760206 -1.283379 -1211 62 56 32
-2.753462 2.758830 -1.269982 -1193 63 59 34
-2.753588 2.758822 -1.266929 -1157 55 52 33
-2.754397 2.758766 -1.263518 -1203 56 54 33
-2.751468 2.758974 -1.262090 -1188 51 49 28
-2.747178 2.759279 -1.261377 -1236 50 48 27
-2.752764 2.758885 -1.255453 -1224 52 47 28
-2.742344 2.759623 -1.257958 -1209 49 44 25
-2.738394 2.759904 -1.257048 -1191 50 44 28
-2.741266 2.759702 -1.252563 -1173 53 48 29
-2.732883 2.760296 -1.253961 -1172 49 44 25
-2.730982 2.760432 -1.251966 -1170 49 43 27
-2.734508 2.760184 -1.247054 -1188 48 45 26
-2.752439 2.758916 -1.234794 -1275 68 66 43
-2.750556 2.759050 -1.232817 -1241 72 68 39
-2.742173 2.759645 -1.234188 -1272 73 70 39
-2.736867 2.760021 -1.233959 -1244 76 72 43
-2.737421 2.759983 -1.230813 -1226 73 69 40
-2.731428 2.760409 -1.230922 -1255 74 70 33
-2.724747 2.760883 -1.231370 -1262 74 68 42
-2.720121 2.761211 -1.230758 -1195 67 61 35
-2.789629 2.756293 -1.192498 -1129 82 77 39
-2.810106 2.754845 -1.179248 -1249 127 126 69
-2.806558 2.755098 -1.178191 -1252 129 131 66
-2.804728 2.755228 -1.176262 -1270 125 126 68
-2.805307 2.755188 -1.173120 -1237 120 121 63
-2.799696 2.755587 -1.173086 -1218 122 128 66
-2.794428 2.755961 -1.172870 -1208 123 126 69
-2.769870 2.757700 -1.182267 -1154 122 125 72
-2.706695 2.762172 -1.210824 -1178 105 107 58
-2.688281 2.763476 -1.217005 -1198 104 109 55
-2.686410 2.763610 -1.214953 -1154 115 120 62
-2.684157 2.763771 -1.212988 -1196 124 130 70
-2.683670 2.763806 -1.210249 -1227 117 126 63
-2.675587 2.764379 -1.211245 -1218 117 126 63
-2.677522 2.764244 -1.207313 -1239 111 115 65
-2.664978 2.765133 -1.210567 -1331 92 93 49
-2.779352 2.754666 -1.375325 -1218 22 19 10
-2.775207 2.754956 -1.374653 -1223 49 48 30
-2.776318 2.754880 -1.370910 -1249 48 47 26
-2.774629 2.754999 -1.368803 -1223 47 46 26
-2.768380 2.755436 -1.369338 -1213 49 46 29
-2.768799 2.755408 -1.366003 -1219 47 44 25
-2.765357 2.755649 -1.364900 -1218 47 46 25
-2.765079 2.755670 -1.361971 -1218 47 48 34
-2.826403 2.751394 -1.323750 -1131 58 64 20
-2.839812 2.750460 -1.312874 -1216 121 126 68
-2.838925 2.750523 -1.310496 -1208 123 129 69
-2.832009 2.751006 -1.311464 -1201 121 127 65
-2.836371 2.750703 -1.305998 -1190 123 129 67
-2.831923 2.751014 -1.305550 -1177 126 132 68
-2.830297 2.751129 -1.303494 -1223 131 138 71
-2.826907 2.751367 -1.302434 -1224 129 134 68
-2.828111 2.751284 -1.298779 -1191 123 128 64
-2.825077 2.751496 -1.297514 -1195 132 137 73
-2.818505 2.751956 -1.298229 -1200 132 138 74
-2.817988 2.751993 -1.295636 -1200 134 141 74
-2.816016 2.752132 -1.293762 -1224 123 129 67
-2.814755 2.752221 -1.291490 -1223 127 133 71
-2.811684 2.752436 -1.290131 -1188 132 136 75
-2.810781 2.752500 -1.287658 -1206 130 135 69
-2.808461 2.752663 -1.285970 -1164 129 136 69
-2.805077 2.752901 -1.284867 -1185 127 133 69
-2.803825 2.752989 -1.282585 -1167 123 129 67
-2.802219 2.753102 -1.280496 -1164 117 121 62
-2.803145 2.753039 -1.277113 -1178 121 125 66
-2.797986 2.753400 -1.276969 -1142 115 118 61
-2.798166 2.753388 -1.273902 -1187 116 122 60
-2.789086 2.754023 -1.275878 -1239 119 124 70
-2.735120 2.757788 -1.302296 -969 57 57 21
-2.735951 2.757732 -1.298709 -1055 63 59 34
-2.732186 2.757995 -1.297707 -904 61 64 35
-2.731318 2.758057 -1.295233 -1075 65 65 37
-2.717194 2.759044 -1.299791 -1252 52 52 28
-2.714140 2.759258 -1.298379 -1262 48 47 26
-2.711801 2.759422 -1.296579 -1257 53 48 29
-2.733081 2.757939 -1.282168 -1208 53 51 26
-2.754388 2.756454 -1.267802 -1142 61 59 36
-2.751362 2.756666 -1.266419 -1149 56 54 31
-2.754429 2.756453 -1.261803 -1221 59 57 34
-2.753200 2.756540 -1.259470 -1203 53 51 30
-2.747668 2.756927 -1.259406 -1227 51 48 29
-2.744608 2.757142 -1.257935 -1211 50 45 26
-2.735519 2.757777 -1.259813 -1154 49 46 27
-2.737167 2.757663 -1.255955 -1208 45 42 23
-2.741337 2.757374 -1.250788 -1118 51 45 29
-2.729725 2.758185 -1.253950 -1173 48 42 26
-2.727064 2.758372 -1.252340 -1193 45 39 23
-2.747451 2.756950 -1.238777 -1262 53 51 28
-2.750209 2.756759 -1.234387 -1224 68 67 39
-2.745402 2.757096 -1.233909 -1259 69 68 38
-2.741676 2.757357 -1.232865 -1241 75 71 42
-2.734703 2.757845 -1.233483 -1283 73 72 42
-2.727364 2.758358 -1.234272 -1262 67 66 36
-2.721106 2.758796 -1.234494 -1255 75 72 41
-2.719942 2.758878 -1.232202 -1203 66 62 37
-2.717658 2.759039 -1.230385 -1205 69 63 37
-2.775429 2.755009 -1.198115 -1119 69 64 26
-2.803945 2.753021 -1.180791 -1219 120 117 66
-2.805332 2.752925 -1.177229 -1249 122 120 69
-2.801977 2.753160 -1.175968 -1236 121 126 70
-2.801197 2.753216 -1.173501 -1263 111 116 58
-2.796792 2.753524 -1.172849 -1245 115 120 64
-2.771339 2.755301 -1.182700 -1123 120 122 73
-2.690680 2.760930 -1.219993 -1203 92 93 51
-2.691709 2.760860 -1.216588 -1196 106 108 59
-2.686929 2.761194 -1.216068 -1214 116 118 68
-2.684254 2.761382 -1.214310 -1187 109 114 60
-2.681981 2.761542 -1.212444 -1173 115 120 62
-2.680475 2.761648 -1.210293 -1213 121 127 65
-2.676385 2.761935 -1.209314 -1227 120 129 66
-2.672257 2.762224 -1.208252 -1313 119 124 70
-2.779075 2.752351 -1.374032 -1239 44 42 29
-2.776690 2.752516 -1.372340 -1227 50 49 29
-2.774306 2.752681 -1.370644 -1255 49 48 27
-2.769129 2.753038 -1.370566 -1227 49 46 29
-2.773386 2.752747 -1.365015 -1229 49 46 29
-2.763639 2.753418 -1.367512 -1247 48 45 28
-2.765806 2.753270 -1.363176 -1216 44 43 23
-2.765178 2.753314 -1.360457 -1214 44 42 29
-2.817800 2.749699 -1.327183 -1159 48 48 12
-2.837188 2.748368 -1.313080 -1247 119 124 66
-2.837337 2.748358 -1.310077 -1250 117 123 63
-2.833958 2.748592 -1.309032 -1178 125 131 71
-2.836546 2.748415 -1.304588 -1165 129 136 68
-2.831062 2.748793 -1.304734 -1209 136 136 72
-2.830496 2.748833 -1.302086 -1237 129 133 72
-2.828150 2.748995 -1.300387 -1178 125 130 66
-2.826885 2.749084 -1.298134 -1172 128 133 69
-2.822430 2.749391 -1.297616 -1169 132 137 71
-2.824715 2.749235 -1.293425 -1173 132 139 72
-2.821342 2.749468 -1.292351 -1254 125 132 65
-2.817993 2.749699 -1.291314 -1250 131 136 72
-2.812503 2.750078 -1.291407 -1232 124 128 67
-2.811600 2.750141 -1.288942 -1213 128 132 71
-2.810347 2.750228 -1.286671 -1208 129 134 70
-2.805915 2.750534 -1.286158 -1191 131 138 71
-2.806055 2.750525 -1.283059 -1172 128 134 70
-2.805515 2.750564 -1.280394 -1205 125 131 71
-2.805002 2.750600 -1.277772 -1123 113 117 58
-2.804445 2.750640 -1.275064 -1144 113 116 59
-2.800039 2.750944 -1.274572 -1188 120 124 65
-2.794521 2.751324 -1.274565 -1209 110 115 59
-2.739017 2.755140 -1.301832 -1047 87 90 47
-2.716805 2.756668 -1.310847 -867 49 47 24
-2.733646 2.755512 -1.298681 -1060 70 68 47
-2.731317 2.755673 -1.296908 -1042 72 76 43
-2.725409 2.756080 -1.297002 -1165 72 68 41
-2.716320 2.756706 -1.298849 -1244 50 45 23
-2.714701 2.756819 -1.296673 -1224 48 42 26
-2.708810 2.757225 -1.296781 -1219 52 47 28
-2.728217 2.755892 -1.283386 -1224 53 48 28
-2.749812 2.754409 -1.268938 -1164 60 58 35
-2.750363 2.754372 -1.265659 -1162 60 58 35
-2.749133 2.754458 -1.263328 -1167 52 50 27
-2.748596 2.754496 -1.260573 -1180 56 54 31
-2.749538 2.754432 -1.257154 -1219 52 49 30
-2.744384 2.754788 -1.256888 -1219 50 48 25
-2.741375 2.754996 -1.255488 -1209 49 46 27
-2.741944 2.754958 -1.252212 -1226 46 43 24
-2.740370 2.755067 -1.250058 -1141 49 46 29
-2.728385 2.755892 -1.253265 -1175 48 42 28
-2.736509 2.755335 -1.246117 -1193 50 45 25
-2.749262 2.754460 -1.236485 -1247 68 64 39
-2.745549 2.754716 -1.235449 -1265 72 69 38
-2.741837 2.754972 -1.234408 -1208 73 72 41
-2.735610 2.755402 -1.234652 -1273 73 72 41
-2.729020 2.755856 -1.235069 -1263 69 68 38
-2.722787 2.756286 -1.235291 -1188 69 68 38
-2.717631 2.756641 -1.234950 -1213 72 71 41
-2.713192 2.756948 -1.234234 -1196 69 68 38
-2.716315 2.756734 -1.229671 -1231 61 55 33
-2.725952 2.756073 -1.221876 -1219 63 56 28
-2.794332 2.751373 -1.184374 -1144 115 112 69
-2.792101 2.751527 -1.182632 -1203 113 117 66
-2.798870 2.751063 -1.176309 -1213 116 123 69
-2.789088 2.751737 -1.178413 -1157 114 119 61
-2.761557 2.753631 -1.189264 -1139 116 121 67
-2.695359 2.758183 -1.219394 -1231 98 101 56
-2.689136 2.758612 -1.219571 -1206 84 86 47
-2.686483 2.758796 -1.217851 -1201 87 88 46
-2.685301 2.758878 -1.215455 -1229 94 95 51
-2.683057 2.759034 -1.213640 -1173 93 96 51
-2.681517 2.759141 -1.211419 -1188 101 105 55
-2.678507 2.759349 -1.209863 -1205 108 113 57
-2.677718 2.759405 -1.207327 -1206 108 116 56
-2.671830 2.759811 -1.207228 -1293 115 118 63
-2.780406 2.749966 -1.372340 -1193 47 46 28
-2.780368 2.749970 -1.369177 -1226 47 46 25
-2.775335 2.750312 -1.369021 -1218 51 50 30
-2.770972 2.750608 -1.368465 -1205 50 47 30
-2.766987 2.750879 -1.367781 -1198 48 45 28
-2.764600 2.751042 -1.365971 -1221 50 46 34
-2.760278 2.751336 -1.365469 -1180 44 43 25
-2.758608 2.751450 -1.363336 -1208 45 42 25
-2.791634 2.749215 -1.341209 -1190 45 43 22
-2.830481 2.746585 -1.315943 -1149 111 112 68
-2.834600 2.746307 -1.310604 -1177 118 121 64
-2.831971 2.746486 -1.309121 -1185 127 133 73
-2.834115 2.746342 -1.305018 -1249 124 131 63
-2.831192 2.746541 -1.303796 -1172 132 137 71
-2.832588 2.746448 -1.299939 -1208 125 129 70
-2.825565 2.746925 -1.300932 -1182 130 134 73
-2.823620 2.747058 -1.299053 -1201 129 134 70
-2.823371 2.747076 -1.296219 -1195 132 137 71
-2.823165 2.747091 -1.293458 -1172 131 136 69
-2.820886 2.747246 -1.291764 -1165 133 138 74
-2.815893 2.747585 -1.291581 -1213 131 131 71
-2.811916 2.747856 -1.290822 -1208 131 136 72
-2.810319 2.747965 -1.288736 -1201 123 127 66
-2.810083 2.747982 -1.285895 -1177 128 133 69
-2.806448 2.748230 -1.284935 -1209 128 132 71
-2.804175 2.748385 -1.283217 -1196 130 136 76
-2.804969 2.748332 -1.279812 -1206 119 124 68
-2.804744 2.748349 -1.276969 -1209 114 118 67
-2.800051 2.748668 -1.276481 -1129 114 114 64
-2.801576 2.748565 -1.272777 -1198 111 114 59
-2.768927 2.750778 -1.287594 -924 107 109 62
-2.733513 2.753178 -1.303831 -1137 56 55 24
-2.711051 2.754701 -1.312959 -998 66 61 41
-2.726870 2.753630 -1.301341 -1132 57 56 28
-2.729707 2.753439 -1.296766 -1119 63 62 32
-2.718858 2.754175 -1.299566 -1196 55 50 31
-2.713139 2.754564 -1.299587 -1231 50 44 28
-2.713243 2.754558 -1.296480 -1252 50 44 28
-2.709619 2.754805 -1.295463 -1234 52 47 27
-2.712474 2.754613 -1.290892 -1221 55 50 30
-2.749316 2.752118 -1.268265 -1164 56 54 33
-2.748081 2.752203 -1.265928 -1152 58 56 33
-2.749597 2.752101 -1.262135 -1162 63 61 36
-2.746993 2.752279 -1.260524 -1187 57 55 32
-2.745766 2.752363 -1.258184 -1196 54 52 29
-2.748326 2.752191 -1.253855 -1169 51 49 26
-2.742973 2.752555 -1.253681 -1203 49 46 27
-2.745887 2.752359 -1.249177 -1208 48 45 28
-2.736743 2.752979 -1.250968 -1165 50 47 30
-2.729317 2.753483 -1.251846 -1160 49 43 27
-2.737070 2.752959 -1.244835 -1173 49 44 24
-2.748287 2.752201 -1.236054 -1232 73 69 40
-2.745357 2.752400 -1.234607 -1250 72 71 40
-2.739009 2.752832 -1.235009 -1249 74 73 42
-2.729163 2.753500 -1.237102 -1242 72 71 40
-2.727267 2.753629 -1.235099 -1245 70 69 39
-2.722950 2.753923 -1.234331 -1231 66 65 35
-2.719671 2.754146 -1.233027 -1219 70 69 39
-2.715700 2.754417 -1.232069 -1208 67 67 39
-2.715887 2.754405 -1.228994 -1218 61 56 36
-2.716079 2.754393 -1.225921 -1175 63 56 30
-2.727416 2.753626 -1.217319 -1185 105 100 62
-2.747409 2.752273 -1.204295 -1137 106 109 56
-2.742380 2.752615 -1.203800 -1150 103 110 56
-2.706804 2.755026 -1.218694 -1155 108 116 59
-2.685452 2.756474 -1.226392 -1193 108 115 61
-2.687389 2.756344 -1.222430 -1214 107 113 65
-2.685156 2.756497 -1.220549 -1254 101 104 61
-2.683272 2.756626 -1.218493 -1221 96 97 55
-2.681390 2.756754 -1.216433 -1250 86 86 48
-2.678115 2.756977 -1.215060 -1229 91 91 55
-2.678328 2.756964 -1.211964 -1193 97 98 56
-2.674707 2.757211 -1.210754 -1203 101 102 58
-2.676709 2.757076 -1.206879 -1219 111 116 62
-2.672392 2.757370 -1.206005 -1278 110 113 60
-2.779141 2.747739 -1.371474 -1249 50 49 31
-2.773834 2.748094 -1.371478 -1205 51 49 26
-2.769187 2.748405 -1.371088 -1196 50 47 28
-2.771822 2.748230 -1.366470 -1239 50 47 28
-2.764238 2.748738 -1.367869 -1172 51 49 24
-2.762572 2.748850 -1.365739 -1250 51 47 35
-2.760244 2.749006 -1.363989 -1249 45 42 25
-2.754931 2.749362 -1.363950 -1219 48 45 26
-2.754597 2.749385 -1.361049 -1155 48 42 26
-2.792806 2.746837 -1.336124 -1123 50 48 27
-2.809454 2.745728 -1.323597 -908 101 87 50
-2.832778 2.744173 -1.307320 -1172 132 135 80
-2.832169 2.744215 -1.304690 -1195 131 135 76
-2.834561 2.744056 -1.300364 -1190 124 128 67
-2.829629 2.744386 -1.300183 -1232 133 139 79
-2.830403 2.744336 -1.296873 -1205 128 132 73
-2.825096 2.744691 -1.296796 -1226 129 133 72
-2.822498 2.744865 -1.295285 -1169 130 140 71
-2.821611 2.744926 -1.292908 -1191 127 137 68
-2.818346 2.745145 -1.291763 -1209 129 134 70
-2.814039 2.745433 -1.291100 -1206 127 132 68
-2.813785 2.745451 -1.288271 -1252 127 133 69
-2.810857 2.745648 -1.286927 -1232 121 125 66
-2.804955 2.746043 -1.287318 -1185 123 127 68
-2.809357 2.745750 -1.281823 -1201 125 129 70
-2.806473 2.745944 -1.280542 -1211 120 124 65
-2.804219 2.746095 -1.278816 -1193 118 119 59
-2.798276 2.746493 -1.279109 -1170 108 111 58
-2.800388 2.746353 -1.274987 -1203 114 112 61
-2.767565 2.748544 -1.289918 -1047 109 109 59
-2.709163 2.752442 -1.318679 -1116 67 66 35
-2.736803 2.750599 -1.300609 -1180 54 52 29
-2.737555 2.750550 -1.297168 -1232 61 59 36
-2.725854 2.751332 -1.300456 -1195 43 39 12
-2.723576 2.751485 -1.298640 -1231 60 55 35
-2.719614 2.751751 -1.297727 -1223 48 43 24
-2.713669 2.752149 -1.297968 -1177 51 45 29
-2.715739 2.752012 -1.293715 -1231 53 48 29
-2.708739 2.752480 -1.294407 -1224 52 47 28
-2.706505 2.752630 -1.292645 -1227 60 55 33
-2.708923 2.752470 -1.288216 -1187 55 53 32
-2.744526 2.750095 -1.266319 -1147 55 53 30
-2.749722 2.749750 -1.260582 -1216 55 53 32
-2.744771 2.750081 -1.260208 -1175 54 52 29
-2.748664 2.749823 -1.255271 -1167 56 54 31
-2.741682 2.750290 -1.255956 -1182 55 53 30
-2.745206 2.750056 -1.251128 -1172 49 47 26
-2.742292 2.750252 -1.249673 -1236 53 51 30
-2.729197 2.751127 -1.253515 -1218 47 44 25
-2.731373 2.750983 -1.249395 -1147 48 43 24
-2.747824 2.749886 -1.237887 -1226 64 60 35
-2.746280 2.749990 -1.235725 -1226 73 73 39
-2.741336 2.750321 -1.235315 -1277 75 74 43
-2.733329 2.750857 -1.236470 -1232 75 74 43
-2.731786 2.750961 -1.234293 -1259 72 71 40
-2.728580 2.751176 -1.233060 -1234 71 70 40
-2.720565 2.751712 -1.234183 -1229 67 66 36
-2.715575 2.752046 -1.233652 -1216 61 60 30
-2.716460 2.751988 -1.230318 -1191 60 63 34
-2.715605 2.752047 -1.227775 -1201 62 58 31
-2.707202 2.752609 -1.228954 -1208 84 75 46
-2.704981 2.752758 -1.227092 -1273 107 105 57
-2.700028 2.753090 -1.226603 -1234 109 115 67
-2.694389 2.753467 -1.226447 -1170 106 113 61
-2.689812 2.753774 -1.225845 -1231 112 120 61
-2.684854 2.754106 -1.225328 -1193 116 124 65
-2.683320 2.754210 -1.223098 -1200 111 118 66
-2.682131 2.754290 -1.220695 -1223 97 100 53
-2.681629 2.754325 -1.217952 -1231 95 98 55
-2.679759 2.754451 -1.215886 -1241 99 101 62
-2.678577 2.754531 -1.213480 -1282 84 85 45
-2.676023 2.754703 -1.211748 -1262 76 77 37
-2.675914 2.754711 -1.208910 -1270 88 85 50
-2.672295 2.754954 -1.207600 -1254 99 101 52
-2.665619 2.755401 -1.207871 -1363 105 105 67
-2.777677 2.745534 -1.374106 -1200 32 30 17
-2.775665 2.745668 -1.372191 -1190 49 49 25
-2.772982 2.745845 -1.370664 -1209 52 50 25
-2.768955 2.746111 -1.369914 -1208 52 50 27
-2.765600 2.746332 -1.368767 -1216 51 49 28
-2.767968 2.746178 -1.364309 -1249 49 49 21
-2.763269 2.746488 -1.363934 -1283 43 41 28
-2.756546 2.746931 -1.364713 -1262 44 42 21
-2.751843 2.747241 -1.364319 -1227 43 41 20
-2.748151 2.747485 -1.363338 -1182 46 43 26
-2.743782 2.747773 -1.362736 -1121 44 41 24
-2.791437 2.744643 -1.332497 -1010 52 42 17
-2.820560 2.742730 -1.312919 -1131 103 98 60
-2.831456 2.742015 -1.303753 -1185 121 120 66
-2.832852 2.741924 -1.299896 -1211 122 126 65
-2.828580 2.742206 -1.299438 -1209 122 132 69
-2.829008 2.742179 -1.296229 -1224 126 131 65
-2.816560 2.742998 -1.300256 -1175 131 131 69
-2.819024 2.742838 -1.295898 -1224 131 136 72
-2.818143 2.742897 -1.293517 -1221 121 130 65
-2.815823 2.743050 -1.291745 -1229 121 126 62
-2.815924 2.743045 -1.288721 -1239 125 126 68
-2.811652 2.743327 -1.288225 -1216 119 124 66
-2.806996 2.743634 -1.287836 -1226 118 121 64
-2.805402 2.743740 -1.285747 -1195 117 120 63
-2.805853 2.743711 -1.282530 -1214 120 120 68
-2.803923 2.743839 -1.280626 -1244 120 118 67
-2.803017 2.743900 -1.278159 -1180 111 109 58
-2.798703 2.744184 -1.277557 -1206 109 107 58
-2.767390 2.746243 -1.291587 -1046 104 101 56
-2.724318 2.749078 -1.305933 -1052 65 60 40
-2.743606 2.747811 -1.292557 -1250 61 57 32
-2.725924 2.748975 -1.299074 -1232 56 54 33
-2.721537 2.749264 -1.298296 -1221 49 44 24
-2.718258 2.749481 -1.297114 -1234 50 45 25
-2.716653 2.749587 -1.294931 -1200 53 48 29
-2.712648 2.749852 -1.294028 -1180 52 47 28
-2.705899 2.750297 -1.294581 -1242 58 53 33
-2.700176 2.750674 -1.294575 -1268 55 50 28
-2.701320 2.750600 -1.290915 -1182 54 52 31
-2.748170 2.747522 -1.263081 -1206 57 55 34
-2.745565 2.747694 -1.261471 -1164 55 53 32
-2.745714 2.747685 -1.258407 -1188 55 53 30
-2.745177 2.747722 -1.255707 -1124 58 53 31
-2.739479 2.748098 -1.255713 -1200 61 56 34
-2.742776 2.747882 -1.251104 -1226 52 50 25
-2.737078 2.748258 -1.251099 -1252 54 52 29
-2.728923 2.748795 -1.252262 -1203 49 46 29
-2.739822 2.748080 -1.243717 -1226 55 48 30
-2.747589 2.747570 -1.236727 -1260 69 68 40
-2.745655 2.747699 -1.234670 -1232 71 72 38
-2.739271 2.748119 -1.235000 -1193 74 73 42
-2.733575 2.748495 -1.234964 -1250 75 74 43
-2.728568 2.748825 -1.234564 -1255 73 72 41
-2.723906 2.749133 -1.233977 -1232 69 68 38
-2.725823 2.749008 -1.230027 -1231 65 64 36
-2.718083 2.749518 -1.231094 -1223 67 65 40
-2.717579 2.749552 -1.228376 -1231 63 66 37
-2.714651 2.749746 -1.226887 -1175 65 60 31
-2.709988 2.750054 -1.226269 -1254 88 86 47
-2.698380 2.750818 -1.229140 -1301 101 103 56
-2.695448 2.751012 -1.227626 -1221 113 117 66
-2.690432 2.751343 -1.227153 -1229 110 118 61
-2.688891 2.751445 -1.224932 -1214 119 127 68
-2.683873 2.751776 -1.224444 -1211 117 122 64
-2.682683 2.751856 -1.222043 -1208 113 118 64
-2.680102 2.752027 -1.220332 -1223 116 120 70
-2.677174 2.752220 -1.218790 -1249 89 92 49
-2.677732 2.752185 -1.215522 -1227 94 97 54
-2.675504 2.752333 -1.213630 -1250 96 97 53
-2.674673 2.752388 -1.211049 -1244 89 89 53
-2.671402 2.752605 -1.209665 -1247 89 89 55
-2.667432 2.752867 -1.208617 -1278 101 103 56
-2.774252 2.743462 -1.371826 -1182 50 49 29
-2.771459 2.743644 -1.370256 -1190 54 52 29
-2.768710 2.743823 -1.368758 -1206 51 49 28
