6982          
-2.844325 2.912748 -1.334447 -1213 123 124 67
-2.840149 2.913344 -1.335380 -1236 124 125 68
-2.844804 2.912680 -1.331164 -1245 127 128 71
-2.841216 2.913193 -1.331752 -1226 131 131 77
-2.841163 2.913201 -1.330281 -1229 124 124 70
-2.838163 2.913630 -1.330522 -1239 127 130 73
-2.837815 2.913680 -1.329221 -1244 124 127 70
-2.836879 2.913814 -1.328262 -1242 124 127 72
-2.835058 2.914075 -1.327814 -1257 122 125 70
-2.832057 2.914503 -1.328047 -1270 119 124 70
-2.833777 2.914258 -1.325552 -1242 113 116 63
-2.832546 2.914434 -1.324760 -1201 116 119 62
-2.832793 2.914400 -1.323118 -1231 116 120 61
-2.827724 2.915124 -1.324534 -1180 119 123 62
-2.830630 2.914710 -1.321362 -1203 122 126 65
-2.827923 2.915096 -1.321416 -1259 124 128 69
-2.823738 2.915694 -1.322314 -1200 119 123 64
-2.823692 2.915702 -1.320839 -1208 120 123 66
-2.826899 2.915244 -1.317503 -1232 121 124 69
-2.820642 2.916138 -1.319579 -1211 119 122 69
-2.818821 2.916398 -1.319115 -1226 119 119 69
-2.819073 2.916363 -1.317470 -1209 118 118 68
-2.819621 2.916285 -1.315657 -1169 103 101 52
-2.819579 2.916292 -1.314181 -1214 109 107 56
-2.820130 2.916213 -1.312369 -1195 115 113 62
-2.816829 2.916685 -1.312743 -1221 124 123 67
-2.818567 2.916437 -1.310259 -1214 131 130 73
-2.817046 2.916655 -1.309623 -1209 127 126 70
-2.813744 2.917127 -1.309991 -1237 130 130 78
-2.810442 2.917599 -1.310357 -1283 118 118 64
-2.810997 2.917520 -1.308544 -1277 116 116 62
-2.807990 2.917950 -1.308738 -1293 128 128 78
-2.800232 2.919058 -1.311602 -1286 118 117 69
-2.795144 2.919785 -1.312957 -1267 104 103 55
-2.792728 2.920130 -1.312806 -1273 109 108 60
-2.789122 2.920646 -1.313319 -1301 112 111 63
-2.786110 2.921076 -1.313497 -1221 112 111 63
-2.792018 2.920233 -1.308682 -1259 113 113 63
-2.789007 2.920664 -1.308858 -1216 116 116 66
-2.787483 2.920882 -1.308202 -1241 113 112 64
-2.787149 2.920930 -1.306881 -1262 106 106 56
-2.783244 2.921488 -1.307548 -1236 108 108 58
-2.783507 2.921451 -1.305894 -1188 109 108 60
-2.781685 2.921711 -1.305398 -1209 111 110 62
-2.783141 2.921504 -1.303083 -1195 108 107 61
-2.779830 2.921977 -1.303412 -1182 107 106 60
-2.779499 2.922025 -1.302088 -1206 100 102 55
-2.780362 2.921902 -1.300105 -1188 100 103 58
-2.777349 2.922333 -1.300263 -1239 98 100 60
-2.774974 2.922673 -1.300168 -1213 73 75 38
-2.774645 2.922720 -1.298842 -1226 59 59 25
-2.778496 2.922171 -1.295217 -1201 61 57 30
-2.773691 2.922857 -1.296354 -1219 61 57 32
-2.778442 2.922179 -1.292242 -1205 61 57 32
-2.775088 2.922659 -1.292477 -1237 61 57 32
-2.775660 2.922578 -1.290661 -1175 60 56 31
-2.770254 2.923350 -1.292115 -1185 61 57 32
-2.772322 2.923055 -1.289482 -1178 62 58 33
-2.774691 2.922717 -1.286687 -1231 61 57 32
-2.770181 2.923362 -1.287644 -1190 61 57 32
-2.772553 2.923024 -1.284852 -1214 61 57 32
-2.769239 2.923497 -1.285153 -1152 61 57 32
-2.768021 2.923672 -1.284314 -1190 60 56 31
-2.769498 2.923461 -1.282012 -1200 56 54 33
-2.767723 2.923715 -1.281576 -1219 56 54 33
-2.762311 2.924488 -1.283004 -1203 57 55 34
-2.764689 2.924149 -1.280216 -1149 58 56 35
-2.765271 2.924067 -1.278402 -1139 58 56 35
-2.760157 2.924797 -1.279660 -1170 57 55 34
-2.761298 2.924635 -1.277443 -1164 55 53 32
-2.759823 2.924846 -1.276838 -1165 55 53 32
-2.759808 2.924849 -1.275346 -1209 55 53 32
-2.755591 2.925451 -1.276109 -1216 57 55 34
-2.756176 2.925368 -1.274295 -1206 55 53 32
-2.754060 2.925671 -1.273927 -1244 55 53 32
-2.741429 2.927475 -1.279177 -1123 61 56 36
-2.720678 2.930438 -1.288746 -1083 70 65 36
-2.876756 2.908155 -1.198345 -1530 94 87 58
-2.872267 2.908797 -1.199308 -1286 97 94 51
-2.866270 2.909654 -1.201064 -1303 111 109 60
-2.877437 2.908060 -1.193740 -1293 111 111 59
-2.871741 2.908873 -1.195334 -1311 112 116 66
-2.870865 2.908999 -1.194380 -1291 114 118 68
-2.865769 2.909727 -1.195648 -1290 117 122 66
-2.863687 2.910025 -1.195325 -1282 119 124 70
-2.863714 2.910021 -1.193892 -1301 118 120 70
-2.860124 2.910534 -1.194358 -1318 116 118 68
-2.853817 2.911435 -1.196244 -1280 121 120 72
-2.847206 2.912380 -1.198281 -1296 118 117 69
-2.849044 2.912118 -1.195894 -1309 113 115 66
-2.846958 2.912416 -1.195558 -1288 116 116 66
-2.843665 2.912887 -1.195851 -1296 115 115 65
-2.840371 2.913358 -1.196140 -1267 126 126 74
-2.838586 2.913613 -1.195640 -1291 120 120 68
-2.835593 2.914041 -1.195767 -1318 120 118 69
-2.835622 2.914037 -1.194323 -1285 114 117 60
-2.831721 2.914595 -1.194916 -1245 118 121 64
-2.824794 2.915584 -1.197072 -1244 125 128 71
-2.823008 2.915840 -1.196561 -1208 129 132 75
-2.820616 2.916182 -1.196362 -1126 122 125 68
-2.822159 2.915962 -1.194130 -1152 131 136 78
-2.818859 2.916434 -1.194396 -1185 133 138 80
-2.820102 2.916257 -1.192322 -1150 125 133 73
-2.820740 2.916166 -1.190561 -1139 127 135 78
-2.821076 2.916119 -1.188956 -1172 114 122 65
-2.819898 2.916287 -1.188128 -1185 109 119 59
-2.819932 2.916283 -1.186679 -1214 112 119 65
-2.817845 2.916581 -1.186315 -1167 98 105 53
-2.816061 2.916836 -1.185795 -1175 108 115 63
-2.817007 2.916702 -1.183881 -1198 121 129 72
-2.818562 2.916480 -1.181658 -1164 106 114 55
-2.817994 2.916562 -1.180519 -1172 110 115 57
-2.813175 2.917251 -1.181539 -1180 120 125 69
-2.813821 2.917159 -1.179780 -1142 127 132 76
-2.812039 2.917414 -1.179254 -1198 114 119 65
-2.811775 2.917452 -1.177957 -1142 117 122 66
-2.810905 2.917577 -1.176968 -1139 119 124 68
-2.810339 2.917658 -1.175825 -1173 110 115 61
-2.807948 2.918000 -1.175601 -1180 108 115 63
-2.810120 2.917690 -1.173078 -1165 103 110 59
-2.810165 2.917684 -1.171628 -1169 103 110 58
-2.809601 2.917765 -1.170484 -1146 105 112 58
-2.808429 2.917933 -1.169645 -1169 115 123 66
-2.806345 2.918231 -1.169264 -1201 116 124 64
-2.805782 2.918312 -1.168118 -1223 117 126 63
-2.804611 2.918480 -1.167277 -1182 120 127 60
-2.788815 2.920736 -1.173737 -1190 132 137 71
-2.767831 2.923733 -1.182766 -1203 141 145 84
-2.752020 2.925991 -1.189192 -1244 132 138 76
-2.750533 2.926204 -1.188474 -1406 132 136 75
-2.756456 2.925363 -1.171017 -1521 72 67 38
-2.762313 2.924527 -1.166696 -1355 70 69 38
-2.760223 2.924826 -1.166278 -1304 111 113 74
-2.759968 2.924863 -1.164959 -1327 106 114 67
-2.760020 2.924856 -1.163491 -1309 109 119 66
-2.755482 2.925504 -1.164263 -1277 117 130 74
-2.752779 2.925891 -1.164136 -1205 125 136 76
-2.750076 2.926277 -1.164007 -1245 136 146 85
-2.748023 2.926571 -1.163657 -1216 119 129 68
-2.741605 2.927488 -1.165228 -1241 120 130 69
-2.744760 2.927038 -1.162346 -1208 116 126 66
-2.740179 2.927693 -1.163019 -1198 118 126 67
-2.736554 2.928211 -1.163323 -1219 124 132 73
-2.734499 2.928505 -1.162963 -1245 121 128 74
-2.733289 2.928678 -1.161996 -1214 109 117 66
-2.733037 2.928714 -1.160666 -1245 107 115 66
-2.731865 2.928882 -1.159779 -1219 108 116 67
-2.731000 2.929006 -1.158743 -1254 117 123 75
-2.726759 2.929612 -1.159327 -1340 112 117 77
-2.727123 2.929561 -1.157700 -1460 79 83 48
-2.836202 2.912766 -1.352298 -982 119 107 67
-2.859211 2.909493 -1.337226 -1273 135 127 81
-2.854718 2.910133 -1.338369 -1267 124 124 70
-2.853479 2.910310 -1.337595 -1254 126 126 72
-2.853129 2.910360 -1.336298 -1227 125 125 71
-2.848041 2.911084 -1.337780 -1249 121 121 67
-2.849764 2.910840 -1.335266 -1216 120 121 64
-2.844971 2.911522 -1.336568 -1162 121 122 65
-2.841954 2.911952 -1.336827 -1213 125 126 69
-2.843976 2.911665 -1.334140 -1223 120 121 64
-2.842145 2.911925 -1.333704 -1214 122 123 66
-2.842983 2.911807 -1.331712 -1214 127 128 71
-2.841196 2.912061 -1.331350 -1182 128 127 73
-2.840850 2.912111 -1.330048 -1223 125 126 69
-2.839316 2.912330 -1.329436 -1216 126 129 72
-2.840115 2.912217 -1.327369 -1218 125 130 72
-2.838880 2.912393 -1.326583 -1221 125 128 73
-2.835564 2.912865 -1.327000 -1244 119 124 68
-2.832886 2.913246 -1.327146 -1244 118 123 69
-2.830715 2.913556 -1.326794 -1226 115 118 63
-2.831306 2.913472 -1.325050 -1236 116 119 64
-2.827691 2.913987 -1.325628 -1203 114 117 60
-2.829729 2.913698 -1.322952 -1170 112 115 58
-2.829089 2.913789 -1.321817 -1177 113 116 59
-2.828153 2.913923 -1.320853 -1188 116 119 64
-2.823898 2.914528 -1.321689 -1165 118 121 64
-2.826238 2.914196 -1.318846 -1227 119 122 65
-2.822962 2.914663 -1.319319 -1218 120 123 68
-2.823219 2.914626 -1.317670 -1259 124 124 74
-2.818706 2.915269 -1.318742 -1208 120 120 70
-2.823139 2.914639 -1.314713 -1195 117 116 68
-2.819819 2.915112 -1.315103 -1229 104 102 53
-2.820377 2.915033 -1.313284 -1191 106 104 55
-2.819146 2.915208 -1.312483 -1175 119 118 64
-2.815227 2.915766 -1.313205 -1188 124 123 69
-2.818774 2.915262 -1.309695 -1196 130 129 73
-2.814557 2.915863 -1.310583 -1224 132 133 76
-2.814820 2.915826 -1.308933 -1285 119 120 63
-2.814487 2.915874 -1.307622 -1290 117 117 63
-2.808473 2.916730 -1.309513 -1278 109 109 57
-2.803354 2.917458 -1.310893 -1252 107 106 58
-2.802122 2.917634 -1.310082 -1278 114 113 65
-2.795504 2.918576 -1.312294 -1282 107 106 58
-2.793374 2.918880 -1.311982 -1272 109 108 62
-2.794536 2.918715 -1.309822 -1298 110 109 61
-2.790010 2.919359 -1.310848 -1265 112 111 63
-2.788178 2.919620 -1.310363 -1255 109 109 59
-2.785747 2.919966 -1.310211 -1209 113 112 64
-2.786314 2.919886 -1.308385 -1226 115 114 66
-2.784782 2.920105 -1.307729 -1229 108 107 59
-2.785350 2.920024 -1.305904 -1216 108 107 59
-2.782019 2.920499 -1.306247 -1211 110 109 61
-2.781688 2.920546 -1.304921 -1205 111 110 64
-2.782559 2.920423 -1.302930 -1241 106 105 59
-2.781329 2.920598 -1.302104 -1173 106 105 57
-2.780142 2.920768 -1.301354 -1198 101 103 54
-2.779471 2.920864 -1.300116 -1232 103 106 61
-2.776439 2.921296 -1.300282 -1223 97 99 59
-2.776455 2.921294 -1.298867 -1205 66 66 32
-2.777932 2.921084 -1.296547 -1232 59 58 28
-2.773998 2.921644 -1.297204 -1208 63 59 32
-2.775176 2.921477 -1.295050 -1216 60 56 31
-2.775454 2.921438 -1.293392 -1155 64 60 35
-2.773023 2.921785 -1.293219 -1177 62 58 33
-2.771495 2.922002 -1.292550 -1203 63 59 34
-2.769625 2.922269 -1.291965 -1177 63 59 34
-2.773821 2.921673 -1.288169 -1157 60 56 31
-2.773241 2.921756 -1.287084 -1213 61 57 32
-2.768659 2.922408 -1.287976 -1211 61 57 32
-2.769888 2.922234 -1.285904 -1201 61 57 32
-2.768664 2.922408 -1.285067 -1216 61 57 32
-2.768647 2.922411 -1.283574 -1218 57 55 32
-2.766217 2.922757 -1.283389 -1223 57 55 34
-2.767710 2.922545 -1.281078 -1219 57 55 34
-2.764374 2.923020 -1.281381 -1201 56 54 33
-2.760434 2.923582 -1.282007 -1185 57 55 34
-2.764648 2.922983 -1.278230 -1224 56 54 33
-2.762218 2.923329 -1.278039 -1183 54 52 31
-2.758881 2.923804 -1.278333 -1224 55 53 32
-2.761287 2.923462 -1.275537 -1169 54 52 31
-2.755834 2.924239 -1.276965 -1223 54 52 31
-2.763081 2.923208 -1.271576 -1191 55 53 32
-2.754904 2.924372 -1.274458 -1239 55 53 32
-2.753986 2.924503 -1.273447 -1291 55 53 32
-2.735815 2.927089 -1.281652 -1082 59 54 32
-2.715819 2.929934 -1.290808 -1129 64 61 30
-2.871902 2.907730 -1.198999 -1445 94 88 52
-2.875571 2.907209 -1.195638 -1334 107 105 57
-2.879888 2.906595 -1.192036 -1322 109 109 59
-2.876544 2.907071 -1.192293 -1298 106 105 57
-2.873541 2.907499 -1.192462 -1285 109 111 62
-2.873270 2.907538 -1.191190 -1300 107 110 57
-2.865142 2.908695 -1.194144 -1293 111 114 61
-2.866654 2.908480 -1.191835 -1295 115 117 67
-2.856091 2.909984 -1.196055 -1288 112 112 62
-2.857034 2.909850 -1.194137 -1298 116 116 66
-2.853723 2.910322 -1.194447 -1309 111 111 61
-2.851018 2.910707 -1.194437 -1298 108 107 59
-2.845271 2.911525 -1.196013 -1332 106 106 56
-2.846217 2.911391 -1.194092 -1316 109 109 59
-2.849255 2.910959 -1.190988 -1295 106 106 56
-2.843201 2.911821 -1.192713 -1308 114 112 64
-2.841752 2.912028 -1.192135 -1316 117 115 66
-2.836913 2.912717 -1.193219 -1314 112 115 60
-2.828722 2.913883 -1.196034 -1267 121 124 67
-2.829060 2.913835 -1.194425 -1272 122 125 70
-2.823302 2.914655 -1.195968 -1214 130 133 78
-2.824555 2.914477 -1.193886 -1175 122 127 69
-2.823370 2.914646 -1.193063 -1154 130 136 76
-2.821880 2.914858 -1.192396 -1155 127 135 75
-2.821611 2.914897 -1.191100 -1162 130 139 76
-2.819206 2.915240 -1.190902 -1150 132 141 78
-2.818327 2.915365 -1.189918 -1165 116 125 62
-2.818059 2.915404 -1.188621 -1173 123 132 69
-2.818708 2.915312 -1.186855 -1180 125 133 74
-2.820886 2.915003 -1.184309 -1147 98 106 57
-2.820621 2.915041 -1.183013 -1149 104 113 60
-2.817912 2.915427 -1.182965 -1193 114 121 67
-2.813673 2.916030 -1.183692 -1141 107 112 54
-2.818914 2.915285 -1.179594 -1211 105 110 52
-2.814063 2.915976 -1.180629 -1159 122 127 69
-2.812882 2.916144 -1.179796 -1136 128 133 75
-2.813845 2.916008 -1.177877 -1157 126 131 73
-2.809910 2.916568 -1.178439 -1141 122 127 69
-2.816385 2.915647 -1.173734 -1141 122 127 69
-2.811532 2.916338 -1.174757 -1150 119 125 65
-2.809741 2.916594 -1.174230 -1137 119 127 68
-2.808256 2.916806 -1.173548 -1160 116 124 65
-2.812902 2.916145 -1.169782 -1195 115 123 64
-2.810192 2.916531 -1.169716 -1162 105 113 56
-2.810243 2.916524 -1.168264 -1173 110 118 61
-2.807571 2.916905 -1.168272 -1187 115 123 63
-2.805167 2.917247 -1.168047 -1182 118 127 64
-2.806753 2.917022 -1.165826 -1182 124 130 66
-2.795448 2.918631 -1.170042 -1177 130 135 71
-2.767825 2.922562 -1.182282 -1187 130 136 74
-2.754356 2.924479 -1.187538 -1226 128 137 74
-2.747640 2.925435 -1.189420 -1362 133 137 76
-2.761992 2.923398 -1.167893 -1409 66 65 35
-2.760198 2.923654 -1.167328 -1306 73 73 37
-2.766414 2.922770 -1.162838 -1272 95 100 59
-2.761848 2.923420 -1.163630 -1260 104 115 59
-2.757897 2.923983 -1.164118 -1290 110 121 63
-2.757337 2.924063 -1.162946 -1286 113 123 63
-2.753384 2.924626 -1.163428 -1236 124 134 73
-2.753441 2.924618 -1.161954 -1247 140 150 89
-2.747019 2.925532 -1.163629 -1208 145 155 94
-2.746151 2.925657 -1.162602 -1232 120 128 68
-2.744047 2.925956 -1.162173 -1205 117 125 66
-2.743797 2.925993 -1.160845 -1259 117 125 66
-2.737370 2.926908 -1.162504 -1255 114 122 63
-2.736501 2.927032 -1.161472 -1219 126 134 77
-2.733161 2.927507 -1.161631 -1229 106 115 60
-2.734456 2.927324 -1.159554 -1232 103 112 57
-2.733898 2.927403 -1.158371 -1244 112 119 65
-2.731485 2.927747 -1.158078 -1208 121 128 77
-2.731547 2.927739 -1.156597 -1291 119 125 77
-2.728824 2.928127 -1.156450 -1349 102 106 69
-2.723935 2.928823 -1.157337 -1458 81 84 55
-2.723879 2.928833 -1.151549 -1483 55 58 37
-2.720846 2.929265 -1.151539 -1493 56 62 34
-2.725250 2.928639 -1.147995 -1468 49 59 34
-2.716329 2.929909 -1.150775 -1463 31 39 16
-2.718876 2.929547 -1.148115 -1442 47 56 29
-2.703748 2.931700 -1.153817 -1406 51 56 33
-2.712809 2.930411 -1.148076 -1509 51 49 34
-2.836560 2.911544 -1.352139 -748 110 107 66
-2.856437 2.908727 -1.338811 -1270 120 118 77
-2.857010 2.908647 -1.337073 -1291 116 116 66
-2.853379 2.909162 -1.337605 -1263 117 117 65
-2.856012 2.908789 -1.334659 -1270 119 119 65
-2.852130 2.909339 -1.335436 -1241 120 123 68
-2.847070 2.910057 -1.336899 -1209 118 121 66
-2.846424 2.910149 -1.335773 -1209 123 126 69
-2.845778 2.910241 -1.334647 -1200 123 124 67
-2.846606 2.910124 -1.332660 -1242 124 125 68
-2.840953 2.910926 -1.334455 -1205 125 126 69
-2.843845 2.910517 -1.331266 -1178 131 130 74
-2.842317 2.910734 -1.330653 -1226 129 128 72
-2.840200 2.911034 -1.330382 -1229 126 126 72
-2.840442 2.911000 -1.328739 -1201 123 127 68
-2.835078 2.911761 -1.330347 -1206 120 128 68
-2.836502 2.911560 -1.328019 -1244 127 132 74
-2.834974 2.911777 -1.327400 -1239 117 122 66
-2.835219 2.911743 -1.325756 -1231 116 119 64
-2.832511 2.912127 -1.325818 -1239 119 122 67
-2.831575 2.912260 -1.324855 -1252 118 121 66
-2.829161 2.912603 -1.324742 -1241 115 118 63
-2.831182 2.912317 -1.322077 -1245 109 112 57
-2.829360 2.912575 -1.321623 -1187 110 113 58
-2.826355 2.913002 -1.321846 -1206 112 114 64
-2.828676 2.912673 -1.319014 -1226 115 117 67
-2.826558 2.912974 -1.318726 -1255 118 121 68
-2.822072 2.913610 -1.319790 -1224 121 121 69
-2.824396 2.913281 -1.316961 -1221 121 121 69
-2.821094 2.913750 -1.317344 -1260 121 121 71
-2.819568 2.913967 -1.316712 -1226 118 117 69
-2.819568 2.913967 -1.315312 -1226 114 113 65
-2.818636 2.914100 -1.314340 -1213 101 99 50
-2.819781 2.913938 -1.312190 -1205 115 113 62
-2.815290 2.914575 -1.313237 -1182 116 114 63
-2.816140 2.914455 -1.311255 -1203 120 120 66
-2.813682 2.914804 -1.311044 -1165 126 127 70
-2.811904 2.915056 -1.310650 -1239 124 124 70
-2.811568 2.915104 -1.309338 -1241 117 117 63
-2.808856 2.915489 -1.309367 -1259 109 109 59
-2.808224 2.915580 -1.308222 -1286 106 106 56
-2.802538 2.916386 -1.309919 -1275 117 116 70
-2.797742 2.917066 -1.311109 -1295 106 105 59
-2.795324 2.917409 -1.310959 -1244 104 103 57
-2.791715 2.917921 -1.311475 -1250 110 109 63
-2.791975 2.917885 -1.309821 -1288 115 114 66
-2.789556 2.918228 -1.309666 -1249 115 114 68
-2.787732 2.918487 -1.309176 -1263 110 109 61
-2.787398 2.918535 -1.307854 -1229 109 108 62
-2.783489 2.919090 -1.308524 -1227 112 111 65
-2.784645 2.918926 -1.306371 -1205 103 102 54
-2.784014 2.919016 -1.305214 -1193 102 99 54
-2.784875 2.918895 -1.303229 -1203 106 103 60
-2.777684 2.919915 -1.305710 -1172 108 105 62
-2.781827 2.919328 -1.301905 -1223 102 101 57
-2.778214 2.919840 -1.302397 -1175 101 102 60
-2.776988 2.920015 -1.301566 -1236 98 98 60
-2.779644 2.919639 -1.298592 -1231 95 95 57
-2.779913 2.919601 -1.296939 -1245 70 69 38
-2.776897 2.920029 -1.297095 -1242 64 60 33
-2.776270 2.920118 -1.295933 -1227 60 56 31
-2.779830 2.919614 -1.292473 -1224 59 55 30
-2.777412 2.919958 -1.292298 -1226 62 58 33
-2.778881 2.919750 -1.289989 -1200 62 58 33
-2.776164 2.920135 -1.289975 -1218 63 59 34
-2.774943 2.920309 -1.289141 -1219 65 61 36
-2.770130 2.920992 -1.290266 -1188 63 59 34
-2.774298 2.920401 -1.286489 -1224 62 58 33
-2.770083 2.920999 -1.287284 -1223 61 57 32
-2.768904 2.921167 -1.286524 -1209 60 58 35
-2.768241 2.921261 -1.285280 -1188 56 54 31
-2.768562 2.921216 -1.283705 -1180 56 54 31
-2.767301 2.921396 -1.282785 -1172 60 58 35
-2.770023 2.921010 -1.279912 -1205 57 55 34
-2.771805 2.920758 -1.277449 -1185 55 53 32
-2.758586 2.922633 -1.283092 -1195 56 54 33
-2.762727 2.922046 -1.279252 -1191 55 53 32
-2.763611 2.921921 -1.277275 -1190 53 51 30
-2.761493 2.922222 -1.276915 -1183 54 52 31
-2.759116 2.922559 -1.276793 -1209 53 51 30
-2.760302 2.922392 -1.274655 -1226 53 51 30
-2.754536 2.923210 -1.276146 -1218 54 52 31
-2.756927 2.922871 -1.273363 -1245 55 53 32
-2.759921 2.922447 -1.270262 -1291 57 55 34
-2.745171 2.924539 -1.276644 -1131 58 56 33
-2.723193 2.927654 -1.286864 -1062 68 61 32
-2.689510 2.932429 -1.303398 -1308 143 131 91
-2.884980 2.904725 -1.190750 -1524 105 100 58
-2.869633 2.906900 -1.197450 -1334 101 97 52
-2.880516 2.905358 -1.190287 -1332 110 106 61
-2.878133 2.905697 -1.190132 -1319 114 113 67
-2.873637 2.906334 -1.191088 -1301 104 103 55
-2.868536 2.907058 -1.192356 -1329 110 110 58
-2.864943 2.907568 -1.192826 -1331 115 115 63
-2.864368 2.907650 -1.191710 -1339 116 116 64
-2.858659 2.908459 -1.193283 -1285 115 115 65
-2.849625 2.909740 -1.196590 -1283 111 111 61
-2.853279 2.909223 -1.193254 -1306 106 106 56
-2.853612 2.909176 -1.191658 -1342 108 108 58
-2.846688 2.910158 -1.193846 -1304 108 110 60
-2.844601 2.910455 -1.193507 -1342 104 106 56
-2.844328 2.910494 -1.192223 -1298 108 108 58
-2.841939 2.910833 -1.192039 -1291 110 113 60
-2.839246 2.911215 -1.192010 -1273 111 114 61
-2.839580 2.911168 -1.190409 -1286 119 122 67
-2.826288 2.913053 -1.195862 -1247 123 126 71
-2.828438 2.912749 -1.193316 -1223 131 136 78
-2.819379 2.914033 -1.196561 -1213 126 132 72
-2.825167 2.913213 -1.192140 -1188 129 135 73
-2.823381 2.913467 -1.191627 -1170 131 140 75
-2.822503 2.913592 -1.190645 -1162 130 139 74
-2.819504 2.914017 -1.190753 -1173 130 139 74
-2.815896 2.914529 -1.191170 -1150 126 135 72
-2.818054 2.914224 -1.188629 -1149 131 140 77
-2.818392 2.914177 -1.187023 -1198 128 136 76
-2.817517 2.914301 -1.186038 -1169 112 120 69
-2.816338 2.914469 -1.185207 -1173 103 108 54
-2.812426 2.915024 -1.185769 -1165 121 126 70
-2.814286 2.914761 -1.183388 -1131 120 125 67
-2.815843 2.914540 -1.181164 -1185 116 121 63
-2.813146 2.914923 -1.181103 -1162 123 128 70
-2.814440 2.914740 -1.179112 -1191 127 133 73
-2.812010 2.915085 -1.178817 -1142 132 138 78
-2.813610 2.914859 -1.176673 -1152 127 133 73
-2.810913 2.915242 -1.176607 -1170 122 128 66
-2.811526 2.915155 -1.174771 -1159 122 126 65
-2.809476 2.915446 -1.174472 -1183 124 128 67
-2.809824 2.915397 -1.172867 -1167 119 125 63
-2.810783 2.915262 -1.170956 -1187 119 125 65
-2.808391 2.915602 -1.170730 -1139 112 117 61
-2.809046 2.915509 -1.168973 -1149 108 115 61
-2.811532 2.915157 -1.166301 -1200 115 123 66
-2.808836 2.915540 -1.166225 -1170 116 124 65
-2.804615 2.916139 -1.166909 -1175 116 124 64
-2.801918 2.916522 -1.166828 -1177 125 134 71
-2.786101 2.918764 -1.173285 -1175 131 139 79
-2.774243 2.920446 -1.177751 -1211 128 136 76
-2.753223 2.923426 -1.186759 -1254 120 128 68
-2.752652 2.923508 -1.185586 -1470 126 130 71
-2.763753 2.921938 -1.167049 -1532 69 69 43
-2.767171 2.921454 -1.163930 -1329 60 64 27
-2.766917 2.921491 -1.162614 -1262 81 88 46
-2.766970 2.921484 -1.161148 -1278 110 119 64
-2.766717 2.921520 -1.159832 -1268 115 125 65
-2.761870 2.922208 -1.160758 -1288 115 125 64
-2.758246 2.922722 -1.161083 -1259 112 122 61
-2.752476 2.923540 -1.162448 -1249 114 124 63
-2.752530 2.923533 -1.160976 -1224 119 127 67
-2.747984 2.924178 -1.161738 -1218 148 156 96
-2.743437 2.924823 -1.162495 -1211 140 148 88
-2.742878 2.924903 -1.161317 -1187 118 126 67
-2.743240 2.924852 -1.159693 -1206 117 125 66
-2.737770 2.925628 -1.160887 -1203 121 129 70
-2.736904 2.925752 -1.159854 -1244 118 126 69
-2.735117 2.926005 -1.159264 -1209 110 119 64
-2.734252 2.926129 -1.158229 -1201 114 121 67
-2.732773 2.926339 -1.157489 -1216 119 127 70
-2.731601 2.926505 -1.156600 -1229 122 130 73
-2.730737 2.926628 -1.155564 -1267 121 128 77
-2.728951 2.926882 -1.154967 -1285 134 137 94
-2.732394 2.926394 -1.151871 -1388 106 107 75
-2.726918 2.927171 -1.153037 -1511 45 47 26
-2.721747 2.927905 -1.154050 -1414 48 51 30
-2.721807 2.927897 -1.152568 -1339 49 55 27
-2.721869 2.927889 -1.151086 -1316 71 82 42
-2.724394 2.927531 -1.148435 -1295 89 100 58
-2.718605 2.928352 -1.149730 -1298 76 92 56
-2.715280 2.928824 -1.149852 -1288 107 122 83
-2.715343 2.928816 -1.148368 -1324 119 130 90
-2.713557 2.929070 -1.147758 -1347 82 86 61
-2.706223 2.930110 -1.149764 -1396 82 86 61
-2.706903 2.930014 -1.147986 -1462 63 69 41
-2.707584 2.929918 -1.146209 -1468 53 58 36
-2.708304 2.929816 -1.144513 -1691 58 61 40
-2.842780 2.909539 -1.347104 -1080 114 113 69
-2.852244 2.908203 -1.340024 -1275 113 112 66
-2.856801 2.907560 -1.335842 -1296 112 112 62
-2.855288 2.907774 -1.335232 -1245 114 114 62
-2.849726 2.908560 -1.336995 -1270 117 120 65
-2.848791 2.908692 -1.336041 -1295 116 119 64
-2.849014 2.908661 -1.334408 -1257 119 122 65
-2.845185 2.909203 -1.335146 -1226 130 133 76
-2.845409 2.909171 -1.333513 -1201 124 125 68
-2.844765 2.909263 -1.332387 -1200 128 129 72
-2.844701 2.909272 -1.330923 -1209 128 129 72
-2.842029 2.909650 -1.330977 -1209 129 128 72
-2.838197 2.910192 -1.331703 -1183 128 127 73
-2.841614 2.909710 -1.328217 -1190 127 127 73
-2.841263 2.909760 -1.326921 -1227 126 132 72
-2.839752 2.909974 -1.326297 -1209 124 130 70
-2.833596 2.910844 -1.328358 -1237 125 128 71
-2.831793 2.911099 -1.327897 -1245 122 125 70
-2.834347 2.910738 -1.324921 -1275 121 124 69
-2.832545 2.910993 -1.324459 -1265 126 129 74
-2.830162 2.911330 -1.324330 -1275 118 121 66
-2.828941 2.911503 -1.323531 -1254 110 113 58
-2.827139 2.911758 -1.323065 -1234 111 114 61
-2.827373 2.911726 -1.321429 -1244 108 110 60
-2.825905 2.911934 -1.320872 -1226 111 113 64
-2.824933 2.912071 -1.319825 -1231 116 118 69
-2.823466 2.912279 -1.319266 -1219 122 122 70
-2.821082 2.912616 -1.319127 -1223 123 123 71
-2.820984 2.912631 -1.317578 -1245 121 121 71
-2.821848 2.912509 -1.315688 -1231 120 119 71
-2.816842 2.913217 -1.317038 -1232 116 115 67
-2.820870 2.912648 -1.313246 -1219 108 106 58
-2.817029 2.913191 -1.313929 -1150 113 111 62
-2.815184 2.913452 -1.313373 -1209 113 113 61
-2.816928 2.913206 -1.310987 -1203 116 116 64
-2.816003 2.913337 -1.310012 -1232 121 121 67
-2.811576 2.913963 -1.311016 -1195 122 122 68
-2.812987 2.913764 -1.308719 -1231 125 125 71
-2.815817 2.913365 -1.305523 -1252 120 120 70
-2.806130 2.914734 -1.309482 -1227 109 108 60
-2.807543 2.914535 -1.307186 -1252 108 107 61
-2.800481 2.915533 -1.309653 -1273 114 113 67
-2.794878 2.916324 -1.311294 -1231 107 106 60
-2.794288 2.916408 -1.310221 -1255 108 107 61
-2.793363 2.916539 -1.309233 -1239 108 107 61
-2.790976 2.916877 -1.309063 -1275 108 107 61
-2.789466 2.917091 -1.308400 -1254 112 111 65
-2.783271 2.917966 -1.310349 -1198 106 105 59
-2.785274 2.917684 -1.307723 -1227 104 103 59
-2.784936 2.917732 -1.306403 -1219 108 105 60
-2.784305 2.917822 -1.305247 -1214 102 97 57
-2.784848 2.917745 -1.303439 -1226 93 88 50
-2.783046 2.918000 -1.302933 -1216 89 86 45
-2.778898 2.918587 -1.303725 -1203 82 79 38
-2.777975 2.918718 -1.302728 -1141 76 74 36
-2.776466 2.918931 -1.302054 -1193 83 83 47
-2.778186 2.918689 -1.299597 -1239 83 83 47
-2.780495 2.918363 -1.296819 -1224 66 62 33
-2.779575 2.918494 -1.295822 -1232 63 59 32
-2.776306 2.918956 -1.296117 -1223 60 55 33
-2.780088 2.918422 -1.292535 -1219 61 56 34
-2.779759 2.918469 -1.291215 -1252 61 57 32
-2.777665 2.918765 -1.290861 -1226 61 57 32
-2.773514 2.919352 -1.291632 -1165 61 57 32
-2.776126 2.918984 -1.288701 -1201 63 59 34
-2.774033 2.919280 -1.288344 -1185 64 60 35
-2.772529 2.919493 -1.287663 -1231 61 57 32
-2.774263 2.919248 -1.285218 -1191 58 56 33
-2.771287 2.919669 -1.285337 -1213 59 57 34
-2.766248 2.920381 -1.286575 -1219 58 56 33
-2.766806 2.920303 -1.284769 -1198 55 53 30
-2.765302 2.920516 -1.284083 -1208 57 55 32
-2.763208 2.920812 -1.283715 -1195 56 54 31
-2.765243 2.920525 -1.281112 -1205 54 52 31
-2.762560 2.920905 -1.281061 -1154 56 54 33
-2.767843 2.920159 -1.276710 -1209 55 53 32
-2.763981 2.920705 -1.277294 -1200 55 53 32
-2.761298 2.921085 -1.277239 -1232 54 52 31
-2.763044 2.920838 -1.274801 -1241 53 51 30
-2.757999 2.921551 -1.276012 -1219 53 51 30
-2.760338 2.921222 -1.273257 -1195 55 53 32
-2.760020 2.921267 -1.271930 -1250 56 54 33
-2.756154 2.921814 -1.272500 -1250 55 53 32
-2.759385 2.921358 -1.269276 -1260 56 54 33
-2.734225 2.924912 -1.281206 -1006 64 58 34
-2.715857 2.927507 -1.289485 -1108 101 85 51
-2.870076 2.905728 -1.197341 -1417 104 97 55
-2.877800 2.904637 -1.191846 -1362 93 85 46
-2.874558 2.905095 -1.192144 -1326 110 105 65
-2.877840 2.904632 -1.189002 -1319 108 107 61
-2.873707 2.905217 -1.189765 -1306 111 111 61
-2.869870 2.905759 -1.190368 -1282 112 112 60
-2.866625 2.906218 -1.190656 -1313 118 118 66
-2.861004 2.907012 -1.192186 -1342 121 121 69
-2.856570 2.907639 -1.193089 -1267 113 116 63
-2.856292 2.907679 -1.191813 -1267 109 112 59
-2.853341 2.908096 -1.191934 -1283 112 117 63
-2.851618 2.908340 -1.191508 -1300 109 114 60
-2.852828 2.908169 -1.189457 -1286 109 114 60
-2.847756 2.908886 -1.190578 -1316 108 111 58
-2.849899 2.908584 -1.188139 -1311 112 115 62
-2.841591 2.909758 -1.191030 -1291 109 117 60
-2.838935 2.910134 -1.190982 -1298 114 119 63
-2.832408 2.911056 -1.192934 -1278 118 123 67
-2.828260 2.911643 -1.193649 -1241 119 124 66
-2.826792 2.911850 -1.192976 -1237 126 132 70
-2.825026 2.912100 -1.192455 -1187 127 133 69
-2.819982 2.912813 -1.193621 -1226 127 134 67
-2.822090 2.912516 -1.191102 -1205 124 133 66
-2.820026 2.912808 -1.190731 -1193 127 134 67
-2.818260 2.913058 -1.190204 -1185 126 135 70
-2.820372 2.912760 -1.187689 -1142 130 139 76
-2.819164 2.912931 -1.186778 -1159 127 136 73
-2.818295 2.913055 -1.185791 -1128 121 131 71
-2.818321 2.913051 -1.184347 -1146 112 120 63
-2.814804 2.913549 -1.184808 -1191 111 116 62
-2.819869 2.912834 -1.180698 -1205 120 125 69
-2.815456 2.913457 -1.181613 -1160 117 122 64
-2.815485 2.913454 -1.180168 -1142 123 129 69
-2.810733 2.914126 -1.181151 -1178 130 136 76
-2.811061 2.914080 -1.179553 -1183 131 137 75
-2.810494 2.914160 -1.178409 -1169 130 136 72
-2.808730 2.914410 -1.177871 -1188 126 130 69
-2.811754 2.913983 -1.174913 -1188 124 128 67
-2.812984 2.913810 -1.172865 -1193 126 130 69
-2.810623 2.914144 -1.172627 -1183 125 129 68
-2.811257 2.914055 -1.170881 -1173 121 127 67
-2.811292 2.914050 -1.169437 -1173 117 122 66
-2.810430 2.914173 -1.168445 -1185 114 119 65
-2.809568 2.914295 -1.167451 -1157 110 115 61
-2.812304 2.913909 -1.164657 -1211 111 119 60
-2.807247 2.914624 -1.165762 -1213 113 121 62
-2.804887 2.914958 -1.165515 -1175 120 128 68
-2.795328 2.916309 -1.168855 -1152 127 135 75
-2.787865 2.917363 -1.171140 -1170 130 138 78
-2.766595 2.920368 -1.180284 -1216 124 130 70
-2.746817 2.923162 -1.188660 -1291 121 127 67
-2.747746 2.923032 -1.186740 -1676 124 121 66
-2.773275 2.919430 -1.162556 -1652 70 68 45
-2.762485 2.920954 -1.166412 -1367 56 59 28
-2.767041 2.920311 -1.162738 -1313 73 74 42
-2.763772 2.920773 -1.162898 -1273 107 114 63
-2.764116 2.920725 -1.161289 -1259 108 117 60
-2.762955 2.920890 -1.160416 -1290 116 126 66
-2.762999 2.920884 -1.158955 -1316 116 126 65
-2.757319 2.921687 -1.160281 -1278 120 128 68
-2.753747 2.922192 -1.160575 -1268 121 129 69
-2.749270 2.922825 -1.161306 -1198 126 134 74
-2.746902 2.923160 -1.161008 -1213 130 138 78
-2.747550 2.923069 -1.159248 -1172 139 147 87
-2.745785 2.923319 -1.158657 -1191 122 130 71
-2.739495 2.924208 -1.160250 -1247 122 130 71
-2.740144 2.924117 -1.158488 -1227 133 141 84
-2.741700 2.923897 -1.156291 -1255 123 128 72
-2.736312 2.924659 -1.157437 -1223 111 118 64
-2.735151 2.924823 -1.156546 -1180 119 127 70
-2.730667 2.925457 -1.157249 -1257 119 127 68
-2.733435 2.925067 -1.154472 -1205 117 123 61
-2.730462 2.925487 -1.154447 -1259 122 127 71
-2.730511 2.925481 -1.152974 -1277 132 138 90
-2.732074 2.925261 -1.150779 -1309 83 86 55
-2.725773 2.926151 -1.152336 -1286 66 71 41
-2.721891 2.926700 -1.152735 -1278 74 81 48
-2.721034 2.926822 -1.151690 -1219 101 112 70
-2.721993 2.926687 -1.149783 -1183 118 128 76
-2.721743 2.926723 -1.148451 -1237 118 131 75
-2.719374 2.927058 -1.148123 -1242 122 141 85
-2.717004 2.927393 -1.147793 -1242 125 140 83
-2.716453 2.927472 -1.146603 -1280 124 133 90
-2.714689 2.927721 -1.145983 -1288 133 142 97
-2.708379 2.928613 -1.147505 -1304 135 147 99
-2.707827 2.928692 -1.146310 -1332 92 104 66
-2.708792 2.928556 -1.144402 -1354 88 99 65
-2.701568 2.929577 -1.146339 -1454 93 98 68
-2.839377 2.908895 -1.348810 -957 108 107 61
-2.854537 2.906763 -1.338377 -1275 117 116 68
-2.855328 2.906652 -1.336410 -1298 115 115 63
-2.853244 2.906945 -1.336133 -1263 114 117 64
-2.852023 2.907118 -1.335348 -1229 120 123 68
-2.851378 2.907209 -1.334225 -1282 114 117 62
-2.852461 2.907057 -1.332092 -1280 115 118 63
-2.845193 2.908080 -1.334840 -1211 118 121 64
-2.846853 2.907847 -1.332368 -1229 125 126 69
-2.844768 2.908141 -1.332082 -1190 127 128 71
-2.843260 2.908354 -1.331459 -1201 127 128 71
-2.841175 2.908648 -1.331170 -1229 129 128 72
-2.844858 2.908130 -1.327529 -1224 130 129 73
-2.842774 2.908424 -1.327239 -1224 126 127 70
-2.838670 2.909002 -1.328119 -1227 126 130 71
-2.839760 2.908849 -1.325986 -1226 126 130 71
-2.836521 2.909305 -1.326360 -1237 123 126 69
-2.836747 2.909274 -1.324729 -1236 123 126 69
-2.834084 2.909649 -1.324765 -1247 117 120 63
-2.830843 2.910105 -1.325131 -1231 122 125 70
-2.833426 2.909742 -1.322243 -1272 118 121 66
-2.830474 2.910158 -1.322441 -1282 114 117 64
-2.830413 2.910167 -1.320975 -1293 113 116 63
-2.827171 2.910624 -1.321335 -1227 110 112 63
-2.828848 2.910389 -1.318873 -1205 108 110 61
-2.824405 2.911014 -1.319815 -1205 114 116 67
-2.824390 2.911017 -1.318424 -1226 118 118 68
-2.824000 2.911072 -1.317045 -1223 118 118 66
-2.819060 2.911768 -1.318463 -1231 118 118 68
-2.820452 2.911573 -1.316168 -1239 115 114 66
-2.817787 2.911948 -1.316183 -1203 113 112 64
-2.818891 2.911793 -1.314054 -1185 115 114 66
-2.818547 2.911842 -1.312750 -1223 109 108 60
-2.817042 2.912054 -1.312103 -1201 110 110 60
-2.813506 2.912552 -1.312606 -1209 116 116 64
-2.814281 2.912444 -1.310566 -1193 117 117 63
-2.813648 2.912533 -1.309424 -1226 123 123 69
-2.817125 2.912045 -1.306064 -1216 126 126 74
-2.812717 2.912665 -1.307052 -1275 120 120 70
-2.810342 2.913000 -1.306891 -1273 110 109 61
-2.806804 2.913498 -1.307381 -1288 106 105 57
-2.800938 2.914324 -1.309175 -1241 113 112 66
-2.801760 2.914209 -1.307211 -1298 108 107 61
-2.797056 2.914872 -1.308345 -1263 108 107 61
-2.791768 2.915617 -1.309800 -1234 109 108 64
-2.791135 2.915706 -1.308647 -1229 110 109 65
-2.787882 2.916164 -1.308956 -1208 111 110 66
-2.788998 2.916008 -1.306826 -1255 110 109 65
-2.788367 2.916097 -1.305671 -1229 104 103 59
-2.782490 2.916925 -1.307435 -1188 110 107 66
-2.783317 2.916809 -1.305466 -1244 89 83 47
-2.783852 2.916734 -1.303661 -1196 80 74 38
-2.780015 2.917274 -1.304283 -1160 71 67 30
-2.778509 2.917487 -1.303608 -1173 71 69 31
-2.778464 2.917494 -1.302125 -1188 71 68 33
-2.777251 2.917665 -1.301287 -1242 69 68 37
-2.774871 2.918000 -1.301093 -1219 61 57 28
-2.781252 2.917103 -1.296068 -1265 58 54 29
-2.777997 2.917561 -1.296357 -1223 59 55 30
-2.779417 2.917362 -1.294071 -1223 61 56 34
-2.777915 2.917574 -1.293393 -1260 61 56 34
-2.777876 2.917580 -1.291912 -1237 61 56 34
-2.776374 2.917792 -1.291232 -1164 61 57 32
-2.774873 2.918003 -1.290551 -1206 60 56 31
-2.772787 2.918297 -1.290189 -1188 61 57 32
-2.773628 2.918180 -1.288227 -1187 63 59 34
-2.773299 2.918226 -1.286905 -1223 59 57 34
-2.769163 2.918809 -1.287656 -1190 57 55 32
-2.769128 2.918814 -1.286172 -1177 59 57 34
-2.768800 2.918861 -1.284848 -1209 59 57 34
-2.770273 2.918654 -1.282648 -1223 59 57 34
-2.769947 2.918701 -1.281325 -1241 58 56 33
-2.764636 2.919449 -1.282700 -1208 54 52 29
-2.767831 2.918999 -1.279471 -1211 56 54 33
-2.765159 2.919376 -1.279415 -1221 56 54 33
-2.766261 2.919221 -1.277220 -1175 56 54 33
-2.763296 2.919639 -1.277319 -1201 55 53 32
-2.762974 2.919685 -1.275993 -1198 53 51 30
-2.761183 2.919938 -1.275456 -1206 52 50 29
-2.761155 2.919942 -1.273972 -1203 54 52 31
-2.762051 2.919816 -1.272094 -1252 55 53 32
-2.759967 2.920110 -1.271712 -1272 56 54 33
-2.758177 2.920362 -1.271172 -1234 54 52 31
-2.754035 2.920946 -1.271887 -1244 58 56 33
-2.746066 2.922068 -1.274638 -1164 65 58 32
-2.726617 2.924806 -1.283498 -1042 72 58 31
-2.872074 2.904338 -1.194629 -1372 84 76 40
-2.873269 2.904170 -1.192583 -1359 96 90 56
-2.872399 2.904293 -1.191626 -1324 110 106 68
-2.877728 2.903543 -1.187410 -1309 106 109 54
-2.874204 2.904040 -1.187851 -1327 113 116 61
-2.866250 2.905160 -1.190611 -1300 120 123 68
-2.867449 2.904992 -1.188567 -1304 126 129 76
-2.858900 2.906195 -1.191625 -1295 120 125 71
-2.854484 2.906817 -1.192513 -1285 112 117 63
-2.852727 2.907065 -1.192009 -1277 111 118 64
-2.851562 2.907229 -1.191195 -1316 109 114 58
-2.848622 2.907644 -1.191303 -1273 112 117 61
-2.847753 2.907767 -1.190332 -1293 110 115 59
-2.842741 2.908472 -1.191512 -1285 109 117 58
-2.845127 2.908137 -1.188850 -1277 109 117 58
-2.840409 2.908801 -1.189870 -1296 109 119 59
-2.832137 2.909966 -1.192726 -1313 116 122 62
-2.829786 2.910298 -1.192511 -1229 122 128 66
-2.823582 2.911171 -1.194283 -1231 126 130 69
-2.821525 2.911461 -1.193909 -1218 132 137 71
-2.824803 2.911000 -1.190787 -1259 134 139 73
-2.819486 2.911749 -1.192090 -1209 131 136 70
-2.821877 2.911413 -1.189427 -1209 129 136 69
-2.819821 2.911703 -1.189050 -1162 130 136 72
-2.817468 2.912035 -1.188823 -1187 129 138 73
-2.818083 2.911949 -1.187075 -1136 122 132 69
-2.816621 2.912155 -1.186390 -1193 124 136 74
-2.818166 2.911938 -1.184264 -1160 118 128 68
-2.818487 2.911893 -1.182670 -1137 114 119 65
-2.817026 2.912099 -1.181984 -1149 118 123 67
-2.814674 2.912431 -1.181750 -1185 115 120 62
-2.816780 2.912135 -1.179249 -1152 116 122 62
-2.811715 2.912848 -1.180294 -1150 121 127 65
-2.813228 2.912636 -1.178096 -1172 133 138 74
-2.811768 2.912842 -1.177405 -1172 123 128 62
-2.810644 2.913000 -1.176640 -1160 122 127 63
-2.810971 2.912955 -1.175045 -1152 123 127 66
-2.814573 2.912448 -1.171800 -1190 124 128 67
-2.811924 2.912822 -1.171708 -1180 129 133 74
-2.806595 2.913572 -1.172961 -1157 122 128 68
-2.810499 2.913023 -1.169571 -1200 119 122 67
-2.809042 2.913229 -1.168875 -1195 114 119 65
-2.808181 2.913350 -1.167880 -1205 110 118 61
-2.809706 2.913136 -1.165690 -1191 106 114 55
-2.807952 2.913384 -1.165142 -1167 115 123 64
-2.809181 2.913211 -1.163103 -1198 116 124 64
-2.801759 2.914256 -1.165380 -1116 118 124 64
-2.791648 2.915680 -1.168986 -1167 123 129 69
-2.771085 2.918575 -1.177777 -1188 133 139 79
-2.755589 2.920756 -1.184027 -1291 125 131 71
-2.755317 2.920795 -1.182707 -1570 129 132 75
-2.766076 2.919285 -1.164371 -1365 57 56 35
-2.769707 2.918775 -1.161152 -1298 68 69 37
-2.766154 2.919275 -1.161452 -1242 105 108 65
-2.764696 2.919481 -1.160725 -1268 114 121 67
-2.765936 2.919307 -1.158681 -1290 119 127 68
-2.760283 2.920103 -1.159997 -1280 120 128 68
-2.754929 2.920857 -1.161161 -1259 120 128 68
-2.754970 2.920852 -1.159697 -1270 121 129 69
-2.752612 2.921184 -1.159399 -1221 122 130 70
-2.747555 2.921897 -1.160406 -1190 124 132 72
-2.746397 2.922060 -1.159521 -1247 136 144 84
-2.748840 2.921717 -1.156894 -1195 140 148 89
-2.741679 2.922725 -1.158907 -1183 123 131 72
-2.740220 2.922931 -1.158163 -1242 125 130 72
-2.739363 2.923052 -1.157128 -1214 132 137 81
-2.735201 2.923639 -1.157682 -1226 114 121 67
-2.734043 2.923802 -1.156789 -1229 116 123 69
-2.734088 2.923796 -1.155318 -1191 121 124 67
-2.734434 2.923748 -1.153703 -1241 119 125 61
-2.731172 2.924208 -1.153816 -1241 121 130 67
-2.731219 2.924202 -1.152344 -1223 129 138 85
-2.729461 2.924450 -1.151734 -1268 129 139 89
-2.726800 2.924824 -1.151553 -1234 133 142 95
-2.728955 2.924522 -1.149077 -1239 120 129 82
-2.722984 2.925363 -1.150468 -1203 112 122 69
-2.726043 2.924933 -1.147565 -1201 119 127 70
-2.721275 2.925604 -1.148377 -1262 127 138 78
-2.721325 2.925598 -1.146903 -1244 117 133 68
-2.719266 2.925888 -1.146426 -1206 128 142 80
-2.717208 2.926178 -1.145948 -1226 132 143 83
-2.715451 2.926426 -1.145326 -1257 126 138 74
-2.708869 2.927353 -1.146975 -1263 136 152 90
-2.709524 2.927261 -1.145212 -1275 118 136 76
-2.704146 2.928019 -1.146285 -1290 120 132 82
-2.708460 2.927412 -1.142902 -1306 107 112 72
-2.706967 2.927623 -1.142050 -1368 70 72 35
-2.838503 2.907876 -1.348772 -822 97 96 52
-2.856218 2.905393 -1.336839 -1285 116 116 66
-2.856461 2.905359 -1.335196 -1298 121 121 69
-2.853444 2.905783 -1.335466 -1242 110 113 60
-2.850130 2.906248 -1.335907 -1260 117 120 65
-2.850374 2.906214 -1.334262 -1241 119 122 67
-2.846762 2.906721 -1.334873 -1231 115 118 63
-2.847600 2.906604 -1.332880 -1262 119 122 65
-2.845175 2.906945 -1.332794 -1229 123 126 69
-2.845421 2.906911 -1.331148 -1182 129 130 73
-2.842105 2.907376 -1.331577 -1200 128 127 71
-2.840570 2.907592 -1.330967 -1178 127 128 71
-2.839035 2.907808 -1.330356 -1180 129 130 73
-2.842553 2.907315 -1.326812 -1193 129 130 72
-2.838344 2.907905 -1.327751 -1196 127 131 72
-2.839784 2.907704 -1.325416 -1231 127 131 72
-2.834724 2.908414 -1.326942 -1242 126 130 71
-2.837654 2.908004 -1.323748 -1267 121 125 66
-2.830762 2.908970 -1.326223 -1219 121 124 67
-2.833397 2.908601 -1.323202 -1198 119 122 65
-2.830672 2.908984 -1.323269 -1237 122 125 68
-2.827053 2.909492 -1.323847 -1278 113 116 63
-2.827903 2.909373 -1.321855 -1278 110 112 62
-2.824581 2.909839 -1.322258 -1221 108 110 60
-2.826030 2.909637 -1.319926 -1216 111 113 64
-2.825093 2.909769 -1.318960 -1231 111 113 66
-2.823561 2.909984 -1.318334 -1227 117 117 67
-2.822028 2.910199 -1.317707 -1250 113 113 61
-2.822884 2.910080 -1.315718 -1242 116 116 66
-2.819859 2.910504 -1.315940 -1242 114 113 65
-2.821912 2.910217 -1.313272 -1255 114 116 69
-2.820979 2.910348 -1.312303 -1201 115 117 68
-2.817356 2.910857 -1.312859 -1172 107 106 58
-2.816123 2.911030 -1.312057 -1208 110 110 60
-2.813994 2.911329 -1.311762 -1173 112 112 60
-2.817249 2.910873 -1.308421 -1201 116 116 62
-2.812128 2.911592 -1.309815 -1234 119 119 65
-2.811795 2.911639 -1.308502 -1162 121 121 67
-2.810564 2.911812 -1.307696 -1198 122 122 72
-2.807836 2.912195 -1.307731 -1262 124 123 75
-2.807803 2.912200 -1.306249 -1270 105 104 56
-2.803276 2.912835 -1.307290 -1239 114 113 67
-2.796650 2.913765 -1.309503 -1270 117 116 70
-2.795118 2.913980 -1.308856 -1247 109 108 62
-2.793886 2.914154 -1.308039 -1249 111 110 66
-2.789654 2.914747 -1.308898 -1252 113 112 68
-2.787522 2.915047 -1.308580 -1257 112 111 67
-2.788390 2.914926 -1.306587 -1234 113 111 70
-2.784456 2.915478 -1.307271 -1203 95 93 54
-2.783224 2.915651 -1.306447 -1213 75 71 34
-2.784137 2.915524 -1.304532 -1193 68 63 31
-2.781962 2.915829 -1.304130 -1218 66 63 30
-2.780431 2.916044 -1.303471 -1183 66 63 32
-2.782507 2.915754 -1.300814 -1203 65 64 34
-2.782780 2.915716 -1.299157 -1223 66 65 34
-2.780047 2.916100 -1.299161 -1236 66 65 35
-2.779762 2.916140 -1.297913 -1229 59 55 30
-2.778233 2.916355 -1.297251 -1270 58 54 29
-2.780315 2.916063 -1.294599 -1216 59 54 32
-2.777582 2.916447 -1.294598 -1214 60 55 33
-2.778764 2.916282 -1.292445 -1195 58 56 33
-2.777839 2.916412 -1.291450 -1224 58 56 33
-2.777818 2.916416 -1.289959 -1209 60 56 31
-2.773879 2.916968 -1.290612 -1190 61 57 32
-2.772351 2.917183 -1.289943 -1213 61 59 36
-2.772632 2.917144 -1.288286 -1214 60 58 35
-2.773217 2.917063 -1.286464 -1206 57 55 32
-2.770181 2.917489 -1.286615 -1242 57 55 32
-2.766542 2.918000 -1.287092 -1226 57 55 32
-2.768939 2.917664 -1.284285 -1219 58 56 33
-2.768319 2.917751 -1.283120 -1236 58 56 33
-2.769512 2.917585 -1.280972 -1227 55 53 30
-2.769498 2.917587 -1.279480 -1205 53 51 28
-2.765857 2.918098 -1.279949 -1218 55 53 32
-2.764030 2.918355 -1.279434 -1177 56 54 33
-2.764017 2.918357 -1.277940 -1205 55 53 32
-2.761282 2.918741 -1.277913 -1195 54 52 31
-2.762481 2.918574 -1.275767 -1183 53 51 30
-2.761865 2.918660 -1.274598 -1242 53 51 30
-2.762763 2.918535 -1.272617 -1191 54 52 31
-2.756395 2.919428 -1.274532 -1232 55 53 32
-2.759718 2.918963 -1.271253 -1252 53 53 29
-2.758195 2.919177 -1.270569 -1241 53 53 29
-2.758794 2.919094 -1.268750 -1263 59 57 34
-2.750602 2.920243 -1.271622 -1249 62 57 35
-2.730581 2.923051 -1.280784 -1103 73 59 30
-2.713584 2.925435 -1.288313 -1214 115 101 66
-2.881234 2.901929 -1.189230 -1553 92 83 50
-2.878534 2.902308 -1.189243 -1373 93 87 55
-2.874008 2.902943 -1.190213 -1278 95 91 53
-2.879859 2.902123 -1.185819 -1295 114 116 66
-2.875334 2.902758 -1.186785 -1286 115 118 61
-2.870502 2.903436 -1.187907 -1329 113 118 60
-2.867799 2.903815 -1.187909 -1340 116 121 65
-2.858703 2.905091 -1.191251 -1331 115 123 66
-2.858433 2.905130 -1.189972 -1272 115 123 66
-2.856642 2.905382 -1.189488 -1257 116 124 67
-2.852413 2.905975 -1.190272 -1229 119 127 68
-2.853363 2.905842 -1.188356 -1316 119 127 67
-2.850656 2.906222 -1.188342 -1257 113 123 62
-2.847950 2.906602 -1.188326 -1285 110 120 59
-2.846157 2.906854 -1.187834 -1311 109 119 58
-2.838263 2.907962 -1.190499 -1303 111 119 59
-2.833723 2.908599 -1.191420 -1270 113 119 59
-2.828876 2.909279 -1.192495 -1260 121 125 64
-2.827996 2.909403 -1.191518 -1209 126 130 69
-2.822841 2.910126 -1.192743 -1226 133 138 74
-2.824405 2.909908 -1.190504 -1193 136 141 77
-2.822609 2.910160 -1.189995 -1218 134 139 75
-2.818368 2.910755 -1.190740 -1157 137 143 79
-2.819934 2.910536 -1.188502 -1206 131 140 73
-2.820585 2.910445 -1.186736 -1170 137 146 81
-2.821236 2.910354 -1.184971 -1187 129 138 75
-2.818524 2.910735 -1.184926 -1131 115 123 63
-2.815199 2.911202 -1.185191 -1185 111 116 58
-2.816158 2.911068 -1.183269 -1149 118 123 67
-2.814670 2.911277 -1.182595 -1206 117 122 66
-2.817469 2.910885 -1.179741 -1172 113 118 62
-2.812000 2.911653 -1.181088 -1164 114 120 58
-2.810205 2.911905 -1.180566 -1136 119 123 62
-2.809636 2.911985 -1.179421 -1116 128 133 69
-2.813666 2.911420 -1.175951 -1144 123 128 62
-2.812486 2.911586 -1.175118 -1177 124 129 65
-2.810080 2.911924 -1.174903 -1124 127 132 68
-2.810435 2.911875 -1.173295 -1165 128 132 71
-2.809870 2.911955 -1.172150 -1205 129 132 75
-2.812374 2.911604 -1.169463 -1162 121 124 67
-2.809355 2.912028 -1.169552 -1196 117 125 68
-2.806949 2.912366 -1.169331 -1154 114 122 65
-2.808008 2.912218 -1.166031 -1185 106 114 55
-2.809904 2.911952 -1.163658 -1182 114 122 63
-2.805963 2.912505 -1.164200 -1213 118 124 64
-2.806017 2.912498 -1.162747 -1147 116 122 62
-2.796539 2.913828 -1.166038 -1164 113 119 59
-2.778753 2.916323 -1.173448 -1223 134 140 80
-2.764034 2.918387 -1.179313 -1278 137 143 83
-2.758850 2.919115 -1.180433 -1594 133 139 79
-2.770717 2.917455 -1.161575 -1445 52 51 30
-2.768615 2.917751 -1.161165 -1311 53 53 27
-2.764044 2.918392 -1.161961 -1263 74 75 41
-2.768732 2.917735 -1.158231 -1308 113 121 64
-2.766322 2.918074 -1.157969 -1293 121 129 70
-2.761132 2.918802 -1.159058 -1298 122 130 70
-2.756868 2.919400 -1.159691 -1268 118 126 66
-2.756927 2.919393 -1.158219 -1260 120 128 68
-2.755443 2.919601 -1.157498 -1259 125 133 73
-2.749013 2.920504 -1.159171 -1249 128 136 76
-2.748145 2.920626 -1.158145 -1200 124 132 72
-2.745423 2.921008 -1.158015 -1223 147 152 94
-2.743010 2.921347 -1.157734 -1218 134 139 81
-2.739668 2.921816 -1.157897 -1236 119 124 66
-2.735397 2.922416 -1.158505 -1209 126 131 75
-2.738863 2.921930 -1.155388 -1226 118 121 68
-2.740474 2.921705 -1.153167 -1257 125 129 78
-2.735273 2.922435 -1.154214 -1196 118 123 65
-2.732549 2.922817 -1.154070 -1250 116 124 64
-2.732923 2.922765 -1.152442 -1221 123 133 70
-2.730509 2.923104 -1.152147 -1229 128 140 78
-2.729335 2.923269 -1.151257 -1190 126 136 83
-2.727230 2.923565 -1.150811 -1198 120 130 77
-2.726056 2.923730 -1.149919 -1223 120 131 75
-2.728642 2.923368 -1.147338 -1213 123 131 74
-2.724676 2.923925 -1.147772 -1208 127 135 75
-2.724434 2.923959 -1.146437 -1213 134 140 80
-2.722641 2.924211 -1.145837 -1268 126 137 71
-2.721158 2.924420 -1.145088 -1234 123 132 69
-2.718744 2.924759 -1.144779 -1249 127 133 69
-2.714465 2.925359 -1.145345 -1208 136 150 71
-2.709564 2.926047 -1.146201 -1247 147 161 84
-2.708391 2.926212 -1.145298 -1205 122 130 73
-2.704109 2.926813 -1.145854 -1257 120 125 67
-2.707600 2.926324 -1.142760 -1268 120 125 69
-2.701141 2.927231 -1.144331 -1282 81 81 43
-2.702145 2.927090 -1.142404 -1399 91 90 59
-2.837592 2.906869 -1.348989 -949 107 106 60
-2.856476 2.904232 -1.336372 -1278 120 120 70
-2.855534 2.904364 -1.335426 -1293 117 117 63
-2.851039 2.904992 -1.336564 -1239 113 116 63
-2.853059 2.904710 -1.333879 -1282 117 120 67
-2.846488 2.905629 -1.336226 -1257 119 124 68
-2.847028 2.905554 -1.334408 -1227 119 122 67
-2.847570 2.905479 -1.332590 -1234 124 127 72
-2.847223 2.905528 -1.331292 -1257 126 129 72
-2.843909 2.905991 -1.331723 -1221 129 130 73
-2.838518 2.906745 -1.333360 -1223 128 129 72
-2.841436 2.906338 -1.330160 -1216 126 127 70
-2.843466 2.906054 -1.327481 -1198 127 131 72
-2.841934 2.906269 -1.326871 -1250 124 128 69
-2.838322 2.906774 -1.327464 -1211 127 131 72
-2.837978 2.906823 -1.326163 -1196 123 127 66
-2.836445 2.907037 -1.325549 -1214 124 128 69
-2.834318 2.907335 -1.325277 -1223 122 126 67
-2.833083 2.907508 -1.324489 -1234 124 128 69
-2.830956 2.907805 -1.324213 -1236 118 121 64
-2.828530 2.908145 -1.324108 -1242 117 120 65
-2.833845 2.907403 -1.319552 -1272 116 119 64
-2.825763 2.908532 -1.322693 -1255 108 110 60
-2.826911 2.908372 -1.320533 -1249 109 111 61
-2.825976 2.908504 -1.319569 -1239 112 114 65
-2.823550 2.908843 -1.319456 -1244 110 112 65
-2.821720 2.909099 -1.319000 -1265 109 111 62
-2.823469 2.908855 -1.316501 -1229 111 111 61
-2.821342 2.909153 -1.316214 -1211 114 116 67
-2.822198 2.909034 -1.314227 -1263 111 113 64
-2.818877 2.909498 -1.314617 -1232 110 112 65
-2.816153 2.909879 -1.314665 -1239 111 113 64
-2.820296 2.909301 -1.310814 -1173 98 100 51
-2.814585 2.910099 -1.312552 -1142 109 109 59
-2.813695 2.910224 -1.311657 -1190 111 111 59
-2.814513 2.910110 -1.309594 -1167 114 114 62
-2.810293 2.910700 -1.310478 -1183 119 119 65
-2.811455 2.910539 -1.308322 -1175 116 116 62
-2.812020 2.910460 -1.306506 -1219 120 120 68
-2.812586 2.910382 -1.304690 -1267 119 119 69
-2.805072 2.911432 -1.307415 -1250 108 107 59
-2.802345 2.911813 -1.307446 -1255 111 110 62
-2.801115 2.911986 -1.306634 -1278 118 117 69
